0.73574001 -16.23661041 256.51315308
0.74096000 -16.23597908 256.51547241
0.73544002 -16.23541069 256.52072144
0.74548000 -16.23649025 256.50973511
0.74785000 -16.23312950 256.51553345
0.75115001 -16.23397064 256.51123047
0.74365997 -16.23265076 256.52243042
0.75393999 -16.23319054 256.51699829
0.75774997 -16.23364067 256.50125122
0.76638001 -16.23694038 256.50125122
0.76164001 -16.23555946 256.50555420
0.75694001 -16.23480988 256.50979614
0.76164001 -16.23550034 256.51843262
0.73070002 -16.23751068 256.52502441
0.73754001 -16.23409081 256.52810669
0.73444998 -16.23487091 256.53207397
0.72947001 -16.23675919 256.53579712
0.74068999 -16.23399925 256.53555298
0.74956000 -16.23366928 256.52413940
0.74563003 -16.23376083 256.52984619
0.75163001 -16.23324966 256.53131104
0.73298001 -16.23394012 256.54052734
0.74080998 -16.23378944 256.54272461
0.73492998 -16.23246956 256.54513550
0.74752003 -16.23265076 256.53646851
0.75457001 -16.23225975 256.53704834
0.74892998 -16.23154068 256.54278564
0.74201000 -16.23208046 256.54846191
0.75454003 -16.23225975 256.54562378
0.75796002 -16.23574066 256.52413940
0.76025999 -16.23741913 256.52841187
0.75822997 -16.23531914 256.53417969
0.75805002 -16.23555946 256.54132080
0.76052999 -16.23703003 256.54846191
0.73706001 -16.23196030 256.55276489
0.73325002 -16.22904968 256.55065918
0.73049003 -16.22923088 256.55569458
0.73499000 -16.22644043 256.55557251
0.74057001 -16.22615051 256.55084229
0.73237997 -16.23324966 256.55850220
0.73373002 -16.22901917 256.56225586
0.74180001 -16.23015976 256.55706787
0.74107999 -16.22606087 256.56106567
0.75471997 -16.23199081 256.55136108
0.74625999 -16.23052025 256.55422974
0.75525999 -16.23423958 256.56137085
0.74737000 -16.22892952 256.55996704
0.73154002 -16.23156929 256.56854248
0.73850000 -16.22986031 256.56567383
0.73424000 -16.22677040 256.56875610
0.74036002 -16.22546005 256.56842041
0.74018002 -16.22751999 256.57427979
0.75507998 -16.23451042 256.56710815
0.74611002 -16.22850990 256.56567383
0.75163001 -16.23064041 256.56567383
0.75256002 -16.23180962 256.57568359
0.74629003 -16.22823906 256.57141113
0.73667002 -16.22386932 256.56311035
0.73280001 -16.22155952 256.57507324
0.74032998 -16.22207069 256.57510376
0.75655001 -16.23520088 256.55563354
0.73355001 -16.22591019 256.58001709
0.73943001 -16.22587013 256.58145142
0.75261998 -16.23487091 256.58282471
0.74511999 -16.22540092 256.57861328
0.74857002 -16.22946930 256.58285522
0.74470001 -16.22595978 256.58432007
0.74748999 -16.22866058 256.59002686
0.74326998 -16.22551918 256.59005737
0.73817003 -16.22065926 256.58078003
0.73310000 -16.22356987 256.58578491
0.73262000 -16.21834946 256.58956909
0.73610002 -16.22228050 256.59005737
0.74177003 -16.22518921 256.59863281
0.74871999 -16.23168945 256.59576416
0.74833000 -16.23520088 256.60000610
0.74602002 -16.22628975 256.59576416
0.74611002 -16.23060989 256.60147095
0.73130000 -16.22365952 256.59292603
0.73772001 -16.21957970 256.59454346
0.72995001 -16.21754074 256.59442139
0.73417997 -16.22197914 256.60009766
0.73259002 -16.21754074 256.60177612
0.74168003 -16.22530937 256.60580444
0.73993999 -16.22507095 256.61151123
0.74509001 -16.23204994 256.60864258
0.74475998 -16.23477936 256.61434937
0.73442000 -16.22162056 256.60583496
0.72851998 -16.22254944 256.61010742
0.73253000 -16.21660995 256.60906982
0.73480999 -16.22108078 256.61300659
0.74045002 -16.22698021 256.61868286
0.74102002 -16.23555946 256.62582397
0.73991001 -16.22776031 256.62442017
0.73574001 -16.23690987 256.63031006
0.74260998 -16.23333931 256.62155151
0.73106003 -16.22167969 256.61871338
0.73466003 -16.22126007 256.62301636
0.73253000 -16.21693993 256.62130737
0.72979999 -16.22068977 256.62588501
0.73442000 -16.22155952 256.62872314
0.53916001 -16.24781990 256.65570068
0.53864998 -16.24230003 256.65579224
0.55157000 -16.24644089 256.64224243
0.56401002 -16.25210953 256.63681030
0.56018001 -16.25243950 256.64212036
0.55049002 -16.24048042 256.64389038
0.55925000 -16.24953079 256.63708496
0.56506002 -16.24367905 256.63348389
0.56018001 -16.23913002 256.63635254
0.55517000 -16.24533081 256.63885498
0.54970998 -16.25396919 256.65429688
0.54222000 -16.25247002 256.65740967
0.55361003 -16.25214005 256.64572144
0.56377000 -16.25264931 256.64773560
0.55439001 -16.25418091 256.65237427
0.54552001 -16.24724960 256.64822388
0.56084001 -16.25259018 256.65313721
0.54413998 -16.23897934 256.64862061
0.54246002 -16.24473000 256.65213013
0.56593001 -16.24776077 256.65551758
0.53153998 -16.25214005 256.66860962
0.53912997 -16.25394058 256.66558838
0.52348000 -16.24877930 256.67068481
0.52495003 -16.24365044 256.66735840
0.53219998 -16.24644089 256.66098022
0.53244001 -16.24106979 256.66003418
0.53574002 -16.25075912 256.66247559
0.52810001 -16.24889946 256.66650391
0.52756000 -16.23867989 256.66567993
0.52225000 -16.25217056 256.67721558
0.51949000 -16.25375938 256.68261719
0.52452999 -16.25378990 256.68231201
0.53246999 -16.25375938 256.67599487
0.53289002 -16.25252914 256.68154907
0.51862001 -16.24788094 256.67605591
0.53912997 -16.25259018 256.67266846
0.51655000 -16.24020958 256.67739868
0.52165002 -16.24424934 256.67257690
0.53577000 -16.24842072 256.68386841
0.53864998 -16.25007057 256.67929077
0.54554999 -16.25469017 256.66241455
0.55261999 -16.25252914 256.66143799
0.54363000 -16.25285912 256.66839600
0.54974002 -16.25042915 256.66806030
0.55982000 -16.25037003 256.65838623
0.56224000 -16.24361992 256.66397095
0.56563002 -16.23897934 256.65814209
0.55637002 -16.24905014 256.66549683
0.55571002 -16.24221039 256.66979980
0.54694998 -16.24854088 256.67401123
0.54904997 -16.23883057 256.67419434
0.54465002 -16.23958015 256.67855835
0.53985000 -16.23855972 256.68292236
0.57831001 -16.25378990 256.63427734
0.57081997 -16.25330925 256.64132690
0.57731998 -16.25181007 256.64138794
0.59215999 -16.24854088 256.63305664
0.58649999 -16.25078964 256.63470459
0.59276003 -16.23876953 256.63632202
0.58323002 -16.25000954 256.64093018
0.58166999 -16.24505997 256.64315796
0.58617002 -16.23996925 256.64212036
0.57033998 -16.25085068 256.64788818
0.57729000 -16.24835968 256.64691162
0.57879001 -16.24353027 256.64840698
0.59675002 -16.24257088 256.63485718
0.52113998 -16.25561905 256.68920898
0.51488000 -16.25214005 256.68597412
0.51440001 -16.25628090 256.69338989
0.52423000 -16.25208092 256.69137573
0.52056998 -16.25288963 256.69595337
0.52555001 -16.23930931 256.69757080
0.52897000 -16.25097084 256.68615723
0.53438997 -16.24596024 256.68881226
0.53492999 -16.23982048 256.68878174
0.53083003 -16.24538994 256.69464111
0.51577997 -16.25321960 256.70205688
0.52438003 -16.24613953 256.69903564
0.51376998 -16.25247002 256.70898438
0.52138001 -16.24754906 256.70343018
0.70776999 -16.23895073 256.63308716
0.70756000 -16.23925018 256.64096069
0.71394002 -16.24419022 256.63766479
0.72071999 -16.24571991 256.63436890
0.71934003 -16.24365044 256.64126587
0.72782999 -16.24422073 256.63449097
0.72810000 -16.24176025 256.63903809
0.71107000 -16.24230003 256.64419556
0.70795000 -16.24069023 256.64785767
0.70407999 -16.23895073 256.65451050
0.72431999 -16.24356079 256.64389038
0.71381998 -16.24320030 256.64898682
0.71451002 -16.24169922 256.65661621
0.72156000 -16.24280930 256.64813232
0.72714001 -16.23961067 256.64880371
0.72122997 -16.24062920 256.65588379
0.70653999 -16.24051094 256.66116333
0.71218002 -16.24118996 256.66174316
0.70537001 -16.23925018 256.66806030
0.71236002 -16.24081039 256.66928101
0.72176999 -16.23937035 256.66143799
0.71846998 -16.23897934 256.66888428
0.70530999 -16.23867989 256.67477417
0.71275002 -16.23945999 256.67486572
0.69960999 -16.24164009 256.80068970
0.70831001 -16.23880005 256.68048096
0.73171997 -16.23963928 256.63623047
0.53891999 -16.23637009 256.65472412
0.56509000 -16.23423958 256.63446045
0.56125998 -16.23114967 256.63702393
0.55589002 -16.23553085 256.63992310
0.56224000 -16.23607063 256.64065552
0.55355000 -16.23142052 256.64190674
0.55045998 -16.23496056 256.64736938
0.54904997 -16.23033905 256.64913940
0.54513001 -16.23352051 256.65463257
0.55241001 -16.23222923 256.65731812
0.54146999 -16.23048973 256.65652466
0.55532002 -16.23270988 256.64706421
0.56247997 -16.23300934 256.64514160
0.55378997 -16.23244095 256.65237427
0.55931002 -16.23220062 256.65237427
0.56545001 -16.23435974 256.65234375
0.56141001 -16.23435974 256.65673828
0.52473998 -16.23751068 256.67047119
0.53228998 -16.23619080 256.66256714
0.53736001 -16.23718071 256.66027832
0.53517002 -16.23196030 256.66180420
0.53169000 -16.23312950 256.66964722
0.53772002 -16.23331070 256.66842651
0.53451002 -16.22965050 256.66665649
0.52099001 -16.23637009 256.67456055
0.52464998 -16.23085022 256.67666626
0.51446003 -16.23703003 256.68298340
0.52129000 -16.23640060 256.68121338
0.51955003 -16.23118019 256.68164063
0.52696002 -16.23529053 256.67779541
0.53074002 -16.23229027 256.67572021
0.53880000 -16.23460007 256.67568970
0.53430003 -16.22941017 256.67358398
0.52653998 -16.23373032 256.68276978
0.53312999 -16.23430061 256.68295288
0.52890998 -16.22937965 256.68096924
0.54194999 -16.23513985 256.66088867
0.54456002 -16.23217010 256.66406250
0.55120999 -16.23312950 256.66253662
0.54815000 -16.23232079 256.66836548
0.55844003 -16.23579979 256.66250610
0.54329997 -16.23390961 256.67272949
0.57427001 -16.23184013 256.63638306
0.56655997 -16.22967911 256.63705444
0.57936001 -16.22961998 256.63439941
0.56875002 -16.23241043 256.64074707
0.57858002 -16.23406029 256.64215088
0.57331002 -16.23312950 256.64364624
0.58515000 -16.23307037 256.63348389
0.56800002 -16.23343086 256.64797974
0.57420999 -16.23730087 256.64941406
0.56632000 -16.22920036 256.64468384
0.51652002 -16.23463058 256.68774414
0.52393001 -16.23399925 256.69058228
0.52122998 -16.22929001 256.68829346
0.51380002 -16.23033905 256.69415283
0.52129000 -16.23043060 256.69323730
0.53013998 -16.23567963 256.68881226
0.52863997 -16.23772049 256.69314575
0.51648998 -16.23048973 256.69940186
0.70113999 -16.23348999 256.65032959
0.70117003 -16.22661972 256.64874268
0.69933999 -16.23154068 256.65472412
0.69922000 -16.22566032 256.65734863
0.70017999 -16.22159004 256.65402222
0.70624000 -16.22706985 256.63470459
0.70530999 -16.23435974 256.63781738
0.70444000 -16.22784996 256.63958740
0.70453000 -16.22273064 256.63677979
0.70231003 -16.23024940 256.64385986
0.70890999 -16.21973038 256.63357544
0.71271998 -16.21402931 256.63339233
0.70569998 -16.21829033 256.64096069
0.71022999 -16.21412086 256.64242554
0.72764999 -16.21843910 256.63305664
0.71864998 -16.21777916 256.63592529
0.72233999 -16.21195984 256.63327026
0.71636999 -16.21246910 256.63879395
0.72048002 -16.21352005 256.64315796
0.72803998 -16.21789932 256.63876343
0.72725999 -16.21298027 256.63821411
0.72732002 -16.21393967 256.64315796
0.70437998 -16.23649025 256.64654541
0.72782999 -16.23510933 256.65393066
0.70288002 -16.22153091 256.64755249
0.70705003 -16.21483994 256.64636230
0.71230000 -16.21183968 256.64749146
0.70257998 -16.21721077 256.65100098
0.70726001 -16.21225929 256.65258789
0.70195001 -16.21504974 256.65588379
0.71328998 -16.21364021 256.65457153
0.72087002 -16.21688080 256.64736938
0.71732998 -16.21179008 256.64776611
0.72785997 -16.21810913 256.64880371
0.72008997 -16.21208000 256.65328979
0.72539997 -16.21487045 256.65173340
0.72657001 -16.21678925 256.65737915
0.70756000 -16.20969009 256.65759277
0.70017999 -16.23496056 256.66113281
0.69766998 -16.23060989 256.66177368
0.69764000 -16.23237991 256.66775513
0.70084000 -16.23616028 256.66900635
0.69928002 -16.22009087 256.65988159
0.69661999 -16.22566032 256.66787720
0.70068997 -16.21352005 256.66268921
0.69766998 -16.21910095 256.66540527
0.69677001 -16.22110939 256.67098999
0.69718999 -16.21456909 256.67013550
0.69770002 -16.23253059 256.67358398
0.70072001 -16.23637009 256.67535400
0.69568998 -16.22797012 256.67254639
0.69581002 -16.23180962 256.67944336
0.69367999 -16.22779083 256.68234253
0.70008999 -16.23609924 256.68170166
0.69476002 -16.22339058 256.67532349
0.69442999 -16.21744919 256.67550659
0.69262999 -16.22056961 256.68292236
0.69356000 -16.21367073 256.68365479
0.69725001 -16.21220016 256.67840576
0.72470999 -16.23508072 256.66384888
0.72803998 -16.23166084 256.65942383
0.72491997 -16.23225975 256.66921997
0.70642000 -16.21175003 256.66360474
0.71335000 -16.21355057 256.66174316
0.71157998 -16.21208000 256.66751099
0.72762001 -16.21841049 256.66311646
0.71891999 -16.21511078 256.66030884
0.72821999 -16.22282028 256.67028809
0.71978998 -16.21390915 256.66601563
0.72539997 -16.21516991 256.66885376
0.72096002 -16.23402977 256.67343140
0.71152002 -16.23789978 256.68441772
0.72771001 -16.22620010 256.67605591
0.71780998 -16.23444939 256.68261719
0.72128999 -16.23121071 256.67947388
0.72654003 -16.22516060 256.68176270
0.71284002 -16.21223068 256.67321777
0.71465999 -16.21166039 256.68035889
0.72648001 -16.21997070 256.67602539
0.72005999 -16.21352005 256.67175293
0.72245997 -16.21286011 256.67742920
0.72105002 -16.21433067 256.68319702
0.70104998 -16.21105957 256.67132568
0.69876999 -16.20962906 256.68405151
0.71296000 -16.20762062 256.66174316
0.70651001 -16.20941925 256.67025757
0.71474999 -16.20752907 256.66967773
0.70354003 -16.20996094 256.67611694
0.71469003 -16.20660019 256.67697144
0.70968997 -16.20564079 256.67694092
0.70480001 -16.20507050 256.67935181
0.70801002 -16.21026039 256.68182373
0.70968997 -16.20564079 256.68426514
0.71723998 -16.20903015 256.68447876
0.69775999 -16.23454094 256.68881226
0.69182003 -16.22781944 256.68829346
0.69452000 -16.23201942 256.69354248
0.69919002 -16.23538017 256.69543457
0.69073999 -16.22887039 256.69754028
0.69076997 -16.22164917 256.68933105
0.69107002 -16.21546936 256.68890381
0.69016999 -16.22126007 256.69573975
0.69205999 -16.21289063 256.69677734
0.68774003 -16.22516060 256.70513916
0.69440001 -16.23222923 256.70156860
0.69256997 -16.23201942 256.70874023
0.70099002 -16.23526001 256.70248413
0.69940001 -16.23520088 256.70852661
0.68731999 -16.21589088 256.70526123
0.68629998 -16.22047997 256.71112061
0.68959999 -16.21489906 256.70086670
0.70396000 -16.23739052 256.68826294
0.71460003 -16.23463058 256.68859863
0.70626998 -16.23661041 256.69546509
0.70947999 -16.23703003 256.69143677
0.71371001 -16.23267937 256.69644165
0.72138000 -16.22805977 256.68692017
0.71841002 -16.22974014 256.69180298
0.71964002 -16.22509956 256.69506836
0.72447002 -16.21969986 256.68750000
0.72042000 -16.21516991 256.68893433
0.72258002 -16.21910095 256.69467163
0.71877003 -16.21216965 256.69277954
0.70870000 -16.23505020 256.70153809
0.71411997 -16.23130035 256.70205688
0.70534003 -16.23454094 256.70870972
0.71166998 -16.23199081 256.70852661
0.71474999 -16.22748947 256.71035767
0.72233999 -16.21940041 256.70037842
0.71763003 -16.21372986 256.70040894
0.72138000 -16.22075081 256.70614624
0.71841002 -16.21574020 256.70758057
0.69413000 -16.21072960 256.68948364
0.69901001 -16.20573044 256.68814087
0.69397998 -16.20788956 256.69662476
0.69922000 -16.20722961 256.69491577
0.69347000 -16.20746994 256.70333862
0.70038998 -16.20488930 256.70303345
0.69064999 -16.20986938 256.70910645
0.69748998 -16.20918083 256.70626831
0.69933999 -16.20365906 256.70858765
0.70644999 -16.20972061 256.68756104
0.70731997 -16.20500946 256.68911743
0.71250999 -16.21071053 256.68896484
0.70705003 -16.20882034 256.69616699
0.71287000 -16.21019936 256.69613647
0.70266998 -16.20738029 256.69903564
0.70785999 -16.20767975 256.70474243
0.71227002 -16.20620918 256.70144653
0.71397001 -16.21051979 256.70471191
0.70722997 -16.20375061 256.69882202
0.70569998 -16.20816040 256.71047974
0.71077001 -16.20693016 256.70950317
0.70462000 -16.20224953 256.70849609
0.68761998 -16.22854042 256.71621704
0.68597001 -16.22724915 256.72186279
0.69445997 -16.23354912 256.71331787
0.70113999 -16.23423958 256.71340942
0.69076997 -16.23184013 256.71942139
0.69830000 -16.23526001 256.71868896
0.68752998 -16.21402931 256.71191406
0.68663001 -16.21834946 256.71597290
0.69556999 -16.23439026 256.72390747
0.68383998 -16.22155952 256.72470093
0.68533999 -16.21159935 256.71939087
0.68414003 -16.21388054 256.72482300
0.68720001 -16.23019028 256.72937012
0.68325001 -16.22507095 256.73068237
0.68750000 -16.23097038 256.73571777
0.68344998 -16.22690010 256.73587036
0.69230002 -16.23373032 256.72998047
0.69901001 -16.23529053 256.72854614
0.69235998 -16.23390961 256.73535156
0.69853997 -16.23397064 256.73553467
0.68396002 -16.21718025 256.73022461
0.68330997 -16.22129059 256.73602295
0.68216997 -16.21212006 256.73440552
0.70824999 -16.23303986 256.71560669
0.71364999 -16.22797012 256.71551514
0.70876002 -16.23189926 256.72250366
0.70423001 -16.23472023 256.72189331
0.71230000 -16.22769928 256.72225952
0.71436000 -16.21199036 256.71759033
0.72033000 -16.22009087 256.71331787
0.71307999 -16.21175003 256.72335815
0.72000003 -16.22266960 256.71905518
0.71787000 -16.21865082 256.72479248
0.70471001 -16.23378944 256.72937012
0.71161002 -16.22757912 256.72891235
0.70662999 -16.23130035 256.73596191
0.71016997 -16.22570038 256.73617554
0.71373999 -16.21282959 256.72906494
0.71100998 -16.21924973 256.73806763
0.71406001 -16.21237946 256.73480225
0.71844000 -16.22006035 256.73052979
0.71841002 -16.22270012 256.73770142
0.68624002 -16.20807076 256.72357178
0.69112998 -16.20755959 256.71557617
0.69990999 -16.20866966 256.71340942
0.69661999 -16.20347977 256.71838379
0.69287002 -16.20531082 256.72122192
0.69752002 -16.20908928 256.72204590
0.69713002 -16.20339012 256.72512817
0.68606001 -16.21050072 256.73022461
0.68756002 -16.21014023 256.73519897
0.68371999 -16.20807076 256.73825073
0.68957001 -16.20663071 256.72851563
0.69770002 -16.20885086 256.72918701
0.69371003 -16.20273018 256.73059082
0.69960999 -16.20026970 256.73120117
0.69410002 -16.20861053 256.73638916
0.70045000 -16.20786095 256.73489380
0.68848997 -16.20339012 256.73794556
0.69958001 -16.20231056 256.73669434
0.70398998 -16.20819092 256.71768188
0.71020001 -16.20906067 256.71475220
0.70264000 -16.20479965 256.72167969
0.70740998 -16.20825005 256.72195435
0.70738000 -16.20828056 256.73056030
0.70257998 -16.20483017 256.72961426
0.70188999 -16.20108032 256.72555542
0.70719999 -16.20354080 256.72817993
0.70519000 -16.20648003 256.73626709
0.71025997 -16.20696068 256.73480225
0.70738000 -16.20035934 256.73666382
0.67386001 -16.22047997 256.77438354
0.67233002 -16.21322060 256.77703857
0.67404002 -16.22344971 256.77975464
0.67422003 -16.21796036 256.78024292
0.67388999 -16.22377968 256.78558350
0.67233002 -16.22122955 256.79092407
0.67218000 -16.21726990 256.78726196
0.67299002 -16.21223068 256.79251099
0.67172998 -16.21029091 256.78323364
0.67343998 -16.20668983 256.78753662
0.67338002 -16.20420074 256.79226685
0.68752998 -16.23196030 256.74356079
0.68072999 -16.22525024 256.74697876
0.68426001 -16.23040009 256.74880981
0.68211001 -16.22591019 256.74206543
0.69527000 -16.23385048 256.74029541
0.69116002 -16.23364067 256.74923706
0.69958001 -16.23435974 256.74594116
0.70072001 -16.23397064 256.74105835
0.68093997 -16.21966934 256.74322510
0.68088001 -16.21367073 256.74099731
0.69931000 -16.23255920 256.75180054
0.68004000 -16.21445084 256.74627686
0.68036997 -16.21832085 256.75000000
0.68081999 -16.22698021 256.75384521
0.68656999 -16.23217010 256.75585938
0.68043000 -16.22743034 256.75930786
0.68729001 -16.23201942 256.76312256
0.69556999 -16.23376083 256.75558472
0.70113999 -16.23121071 256.75805664
0.69481999 -16.23303986 256.76312256
0.68211001 -16.22929001 256.76556396
0.70095998 -16.23015976 256.76303101
0.67848003 -16.22153091 256.75576782
0.67725003 -16.21655083 256.75784302
0.67725003 -16.22348022 256.76361084
0.67730999 -16.21228981 256.76339722
0.67712998 -16.21789932 256.76394653
0.70380998 -16.23159981 256.74526978
0.70749998 -16.22776031 256.74227905
0.70681000 -16.22781944 256.74890137
0.70911998 -16.22257996 256.74310303
0.71427000 -16.21520042 256.74200439
0.70954001 -16.21423912 256.74426270
0.71469003 -16.22084045 256.74633789
0.71433002 -16.22353935 256.75210571
0.70963001 -16.22195053 256.74987793
0.71394002 -16.21562004 256.74771118
0.71748000 -16.22402000 256.74346924
0.70507002 -16.22842026 256.75610352
0.70788997 -16.22551918 256.76016235
0.71460003 -16.22318077 256.75784302
0.71245003 -16.21772003 256.75491333
0.71266001 -16.21225929 256.75344849
0.71136999 -16.21921921 256.76071167
0.70692998 -16.21154022 256.76495361
0.70951003 -16.21223068 256.76065063
0.68414003 -16.20825005 256.74542236
0.68109000 -16.20899963 256.75155640
0.68597001 -16.20330048 256.75018311
0.69028997 -16.20812988 256.74075317
0.69885999 -16.20719910 256.74066162
0.69397998 -16.20293999 256.74267578
0.69960999 -16.20281982 256.74478149
0.69208997 -16.20557976 256.74664307
0.69089001 -16.20191956 256.75009155
0.69919002 -16.20108032 256.75003052
0.70015001 -16.19388962 256.74743652
0.68040001 -16.20878983 256.75857544
0.68480003 -16.20533943 256.75521851
0.68040001 -16.20590973 256.76437378
0.68629998 -16.20134926 256.76162720
0.69679999 -16.20479965 256.75784302
0.68957001 -16.20399094 256.75708008
0.69871002 -16.20731926 256.76358032
0.69356000 -16.20033073 256.76223755
0.70125997 -16.19582939 256.75341797
0.70125997 -16.18720055 256.75241089
0.70558000 -16.20590973 256.74343872
0.71200001 -16.20929909 256.74099731
0.71275002 -16.20503998 256.74423218
0.70462000 -16.20066071 256.74185181
0.70494998 -16.20519066 256.75106812
0.70867002 -16.20866966 256.74865723
0.70681000 -16.20129013 256.74746704
0.71445000 -16.19835091 256.74758911
0.71013999 -16.20141029 256.75143433
0.70701998 -16.19461060 256.74377441
0.71152002 -16.19149017 256.74450684
0.70797998 -16.19527054 256.75073242
0.70630002 -16.18921089 256.74957275
0.71364999 -16.18609047 256.74905396
0.70398998 -16.20536995 256.75631714
0.70437998 -16.20752907 256.76208496
0.71469003 -16.19681931 256.75396729
0.68695998 -16.23180962 256.77038574
0.67764002 -16.22570038 256.76956177
0.68456000 -16.23180962 256.77795410
0.68076003 -16.22916985 256.77273560
0.67839003 -16.22809029 256.77893066
0.69226998 -16.23277092 256.76931763
0.70125997 -16.22727966 256.77053833
0.69281000 -16.23201942 256.77679443
0.69836003 -16.23015976 256.77377319
0.67550999 -16.21747971 256.77014160
0.67778999 -16.21179008 256.76943970
0.68133003 -16.23069954 256.78305054
0.67799997 -16.22760963 256.78637695
0.68743998 -16.23255920 256.78622437
0.67767000 -16.22800064 256.79269409
0.68238002 -16.23064041 256.78994751
0.69160998 -16.23232079 256.78274536
0.69704002 -16.23027992 256.77981567
0.70120001 -16.22677040 256.78067017
0.69452000 -16.23067093 256.78778076
0.69796997 -16.22748947 256.79058838
0.70512998 -16.22507095 256.76773071
0.71091998 -16.21985054 256.76641846
0.70968997 -16.21841049 256.77218628
0.70665997 -16.21187019 256.77072144
0.70480001 -16.22278976 256.77508545
0.70740998 -16.21511078 256.77648926
0.70795000 -16.21879959 256.78079224
0.70567000 -16.21520042 256.78509521
0.70708001 -16.22200966 256.78802490
0.70542997 -16.21787071 256.79086304
0.67881000 -16.20422935 256.77227783
0.68672001 -16.20248985 256.76779175
0.68579000 -16.19957924 256.77194214
0.67947000 -16.20536995 256.77746582
0.68558002 -16.20302963 256.77709961
0.69305003 -16.20729065 256.76651001
0.69718999 -16.20698929 256.77075195
0.69452000 -16.20252037 256.76824951
0.68902999 -16.20686913 256.77804565
0.69413000 -16.20575905 256.77795410
0.70081002 -16.20722961 256.77645874
0.69353002 -16.20038986 256.77447510
0.68729001 -16.20668983 256.78378296
0.68090999 -16.20047951 256.78179932
0.68579000 -16.19978905 256.78421021
0.67862999 -16.20792007 256.78823853
0.68351001 -16.20672035 256.78958130
0.67862999 -16.20099068 256.78674316
0.67749000 -16.20038986 256.79199219
0.68322003 -16.19816971 256.79144287
0.69212002 -16.20536995 256.78369141
0.69743001 -16.20663071 256.78366089
0.69349998 -16.19988060 256.78421021
0.69046998 -16.20479965 256.79232788
0.70047998 -16.20767975 256.78793335
0.69547999 -16.20653915 256.79083252
0.69356000 -16.20108032 256.78918457
0.68822002 -16.19898033 256.79150391
0.70216000 -16.20438004 256.76660156
0.70297003 -16.20944977 256.78359985
0.70266998 -16.20986938 256.79223633
0.67413002 -16.22573090 256.79980469
0.67065001 -16.22113991 256.79595947
0.67133999 -16.22129059 256.80258179
0.66903001 -16.21475029 256.80035400
0.67322999 -16.22570038 256.80697632
0.67254001 -16.22549057 256.81341553
0.66742003 -16.21865082 256.81088257
0.66747999 -16.21357918 256.80853271
0.66715002 -16.22006035 256.81695557
0.67416000 -16.22649956 256.81814575
0.66633999 -16.21402931 256.81460571
0.67092001 -16.20873070 256.79718018
0.66885000 -16.20611954 256.80432129
0.67304999 -16.20326996 256.79986572
0.66709000 -16.20779991 256.81063843
0.67356002 -16.20014954 256.80871582
0.66597998 -16.20795059 256.81658936
0.67067999 -16.20182991 256.81448364
0.67083001 -16.22542000 256.82446289
0.66996002 -16.22528076 256.83001709
0.66579998 -16.22060013 256.82458496
0.66526002 -16.21435928 256.82080078
0.66472000 -16.21179008 256.82565308
0.66576999 -16.22171021 256.83081055
0.67247999 -16.22680092 256.83688354
0.66328001 -16.21435928 256.83258057
0.66804999 -16.22540092 256.84429932
0.66066998 -16.21414948 256.84262085
0.66043001 -16.21820068 256.84573364
0.66373003 -16.21997070 256.83822632
0.67425001 -16.22665024 256.84292603
0.66187000 -16.21159935 256.83724976
0.66615999 -16.20665932 256.82369995
0.67074001 -16.20257950 256.81982422
0.67026001 -16.20002937 256.82458496
0.66496003 -16.20587921 256.82858276
0.66990000 -16.19846916 256.82943726
0.66075999 -16.20743942 256.84497070
0.66417998 -16.20569992 256.83651733
0.66750997 -16.19894981 256.83743286
0.66567999 -16.20186043 256.84320068
0.67334998 -16.19594955 256.83535767
0.67211998 -16.19733047 256.84259033
0.68456000 -16.23040009 256.79644775
0.67746001 -16.22793961 256.80349731
0.68567002 -16.22814941 256.80245972
0.69130999 -16.23010063 256.79409790
0.69766998 -16.23364067 256.80334473
0.69590002 -16.22686005 256.79888916
0.69224000 -16.22797012 256.80340576
0.70120001 -16.21417999 256.80523682
0.67890000 -16.22847939 256.80993652
0.68545997 -16.22845078 256.81027222
0.67881000 -16.22784996 256.81680298
0.68599999 -16.22746086 256.81655884
0.69130999 -16.22607994 256.81069946
0.69611001 -16.22805977 256.80917358
0.70038998 -16.22056961 256.81106567
0.69538999 -16.22348022 256.81268311
0.70054001 -16.21279907 256.81237793
0.69424999 -16.22056961 256.81701660
0.68987000 -16.22426033 256.81939697
0.69988000 -16.21600914 256.81961060
0.70462000 -16.21898079 256.79663086
0.70234001 -16.21261978 256.79800415
0.70318002 -16.21867943 256.80380249
0.67707002 -16.20663071 256.79479980
0.68378001 -16.20630074 256.79675293
0.68081999 -16.19861984 256.79638672
0.68510002 -16.20129013 256.79809570
0.68672001 -16.20500946 256.80383301
0.68022001 -16.20087051 256.80374146
0.69025999 -16.20507050 256.79806519
0.69805998 -16.20816040 256.79656982
0.69682997 -16.20311928 256.79516602
0.69449002 -16.20519066 256.80230713
0.69071001 -16.19936943 256.80133057
0.68563998 -16.19714928 256.80361938
0.68480003 -16.20486069 256.81246948
0.67848003 -16.19808006 256.81100464
0.68282998 -16.19985008 256.80859375
0.67550999 -16.20051003 256.81829834
0.68036997 -16.19825935 256.81671143
0.68570000 -16.19943047 256.81469727
0.68752998 -16.20384026 256.81961060
0.69919002 -16.20944977 256.80661011
0.69230002 -16.20503998 256.80807495
0.69620001 -16.20825005 256.81234741
0.68875998 -16.20120049 256.80740356
0.69440001 -16.20528030 256.81808472
0.69670999 -16.20998955 256.81954956
0.69128001 -16.20141029 256.81564331
0.67817998 -16.22790909 256.82351685
0.68456000 -16.22698021 256.82348633
0.67808998 -16.22724915 256.83044434
0.68444002 -16.22620010 256.83044434
0.69059002 -16.22134972 256.82632446
0.69518000 -16.21763039 256.82379150
0.69755000 -16.21169090 256.82531738
0.69262999 -16.21825981 256.83190918
0.69871002 -16.21529007 256.82965088
0.67815000 -16.22734070 256.83709717
0.68159997 -16.22574997 256.84335327
0.68423003 -16.22473907 256.83764648
0.68759000 -16.22105026 256.83599854
0.68581998 -16.22159004 256.84326172
0.69125003 -16.21723938 256.83905029
0.69529998 -16.21190071 256.83395386
0.69748998 -16.21421051 256.83969116
0.69641000 -16.21570969 256.84548950
0.67749000 -16.19919014 256.82299805
0.68579000 -16.20026970 256.82562256
0.68551999 -16.19912910 256.83059692
0.69431001 -16.20536995 256.82385254
0.69445997 -16.20786095 256.82958984
0.68975002 -16.20314980 256.82815552
0.68300998 -16.19473076 256.82546997
0.68561000 -16.19745064 256.82077026
0.67833000 -16.19540977 256.82794189
0.68563998 -16.20018005 256.83889771
0.68563998 -16.20033073 256.84429932
0.69335002 -16.20668983 256.83819580
0.69076997 -16.20195007 256.83578491
0.68001002 -16.19729996 256.83505249
0.67589998 -16.19466019 256.84014893
0.68001002 -16.19750977 256.84045410
0.67992002 -16.19721031 256.84567261
0.73993999 -16.23255920 256.63156128
0.73811001 -16.23267937 256.63729858
0.73811001 -16.22757912 256.63442993
0.73180997 -16.23586082 256.64117432
0.73624998 -16.22757912 256.64019775
0.73412001 -16.22197914 256.63729858
0.73157001 -16.23418045 256.64620972
0.73501998 -16.22929001 256.65020752
0.73268002 -16.22690010 256.65594482
0.73016000 -16.22011948 256.64450073
0.73307002 -16.22341919 256.64733887
0.73091000 -16.22179985 256.65307617
0.73063999 -16.22682953 256.66311646
0.29605001 -15.95123005 256.14050293
0.40070999 -16.00978088 256.06286621
0.29278001 -15.95238972 256.14556885
0.40386000 -16.01399994 256.06314087
0.40287000 -15.99973011 256.06182861
0.40301999 -16.00506973 256.06311035
0.37676001 -15.99987984 256.08087158
0.37369999 -16.00284958 256.08853149
0.37013000 -15.99590015 256.08877563
0.38644001 -16.02095985 256.07473755
0.39019001 -16.01486969 256.07312012
0.39858001 -16.01580048 256.06668091
0.39397001 -16.01658058 256.06997681
0.39015999 -16.00909042 256.07592773
0.39768001 -16.00893974 256.06692505
0.39379001 -16.00897026 256.07144165
0.39702001 -16.01194000 256.07507324
0.40364999 -16.01181030 256.07162476
0.38385999 -16.00348091 256.07672119
0.39039999 -16.00222015 256.07015991
0.38089001 -15.99895000 256.07666016
0.38971001 -15.99746037 256.07589722
0.39552000 -16.00425911 256.06616211
0.39531001 -15.99859047 256.06860352
0.40008000 -15.99790001 256.06631470
0.40305001 -16.00329971 256.07678223
0.39394000 -16.00423050 256.07644653
0.40397999 -15.99734020 256.07568359
0.38431001 -16.01651955 256.07812500
0.38187999 -16.01194000 256.07876587
0.38896000 -16.01655006 256.08206177
0.39034000 -16.00897026 256.08416748
0.39172000 -16.01778030 256.07711792
0.39219999 -16.01445007 256.08758545
0.39506999 -16.00923920 256.08859253
0.38187999 -16.00473976 256.08139038
0.37876999 -16.00534058 256.08734131
0.38446000 -16.00642014 256.08734131
0.38797000 -16.00411034 256.09011841
0.39884999 -16.00525093 256.07916260
0.40083000 -15.99913025 256.08270264
0.39438000 -16.00305939 256.08743286
0.36309001 -15.98540020 256.08776855
0.36983001 -15.99007988 256.08343506
0.37678999 -15.99067974 256.08276367
0.36539000 -15.99398041 256.08999634
0.37544000 -15.98449993 256.08489990
0.36952999 -15.97931957 256.08605957
0.36754999 -15.97521019 256.08993530
0.37430000 -15.97920036 256.08914185
0.40296000 -15.99335003 256.06729126
0.39567000 -15.99298954 256.07131958
0.38205999 -15.99277973 256.07943726
0.38854000 -15.99295998 256.07803345
0.38260001 -15.98758984 256.08166504
0.39054999 -15.99040985 256.08276367
0.39030999 -15.99295998 256.08984375
0.38629001 -15.98902988 256.08868408
0.38065001 -15.98458958 256.08755493
0.39732000 -15.99308014 256.08001709
0.39473999 -15.99415970 256.08703613
0.45758000 -16.02123070 256.02020264
0.45662001 -16.01354980 256.01910400
0.45392999 -16.01041031 256.02215576
0.44117999 -16.01663971 256.03213501
0.43599999 -16.01486969 256.03604126
0.44178000 -16.01013947 256.03375244
0.44655001 -16.01873970 256.02740479
0.45120001 -16.01561928 256.02557373
0.45008999 -16.00980949 256.02603149
0.45734000 -16.01535034 256.02398682
0.45776001 -16.01011086 256.02890015
0.44637001 -16.01308060 256.03054810
0.45179999 -16.02116966 256.03594971
0.44760001 -16.00555038 256.02899170
0.45692000 -16.02104950 256.03585815
0.44567999 -16.00272942 256.03518677
0.45458999 -16.00650978 256.03070068
0.45126000 -16.00470924 256.03527832
0.44624999 -16.01967049 256.03628540
0.47481999 -16.02128983 256.00448608
0.47170001 -16.01832008 256.00872803
0.47694999 -16.01721001 256.00827026
0.48484001 -16.01960945 256.00695801
0.46403000 -16.01960945 256.01486206
0.47121999 -16.01582909 256.01318359
0.46346000 -16.01387978 256.01745605
0.46088001 -16.00930023 256.01849365
0.46757001 -16.01082993 256.01687622
0.46816999 -16.01232910 256.02252197
0.47775999 -16.01832008 256.01470947
0.48462999 -16.01984978 256.01269531
0.47440001 -16.01604080 256.02111816
0.48120999 -16.01906967 256.01837158
0.46039999 -16.01062012 256.02413940
0.46970001 -16.01486969 256.02822876
0.46489999 -16.01169968 256.03106689
0.43105000 -16.01651955 256.04296875
0.42940000 -16.01748085 256.04763794
0.42302001 -16.01190948 256.04629517
0.42550001 -16.00263977 256.04580688
0.43077999 -16.00819016 256.04455566
0.43015000 -15.99967003 256.04812622
0.40659001 -16.01034927 256.05633545
0.41758999 -16.01427078 256.05294800
0.41275999 -16.01122093 256.05206299
0.41615000 -16.01622009 256.05743408
0.40988001 -16.01505089 256.06027222
0.42394999 -16.01663971 256.05130005
0.41762000 -16.01528931 256.06234741
0.43092999 -16.01604080 256.05340576
0.42254001 -16.01412010 256.05645752
0.43020999 -16.00942039 256.05813599
0.41027001 -16.00551987 256.05535889
0.41618001 -16.00182915 256.05285645
0.40755001 -16.00326920 256.05966187
0.41071999 -16.00003052 256.05725098
0.41633001 -15.99853039 256.05917358
0.42166999 -15.99849987 256.05178833
0.42862001 -16.00107956 256.05319214
0.42697001 -16.00227928 256.05895996
0.42113000 -16.00048065 256.06030273
0.43746999 -16.01913071 256.04125977
0.44391000 -16.01849937 256.04299927
0.43513000 -16.01832008 256.04696655
0.43915001 -16.01483917 256.04940796
0.45710000 -16.00954056 256.03952026
0.44885999 -16.01663971 256.04309082
0.43447000 -16.00798035 256.03875732
0.43158999 -16.00354004 256.04141235
0.44163001 -16.00551987 256.03726196
0.43867001 -16.00336075 256.04165649
0.44385001 -16.00234032 256.04089355
0.43770999 -16.00267029 256.04782104
0.44916001 -16.00503922 256.04235840
0.44751000 -16.00716972 256.04791260
0.43794999 -16.01244926 256.05364990
0.43395999 -16.00272942 256.05343628
0.44226000 -16.00437927 256.05221558
0.41080999 -16.01209068 256.06747437
0.40985000 -15.99715042 256.06439209
0.40761000 -15.99742031 256.07003784
0.41696000 -15.99952030 256.06594849
0.34992000 -15.97941017 256.09875488
0.34968001 -15.97119045 256.10037231
0.34597000 -15.97686005 256.10382080
0.33480999 -15.97056007 256.11227417
0.34962001 -15.98252010 256.10455322
0.34297001 -15.97700977 256.10812378
0.33991000 -15.97529984 256.11495972
0.34937999 -15.97854042 256.11434937
0.32951000 -15.96858025 256.11895752
0.33296001 -15.97196960 256.12048340
0.32980999 -15.97041035 256.12548828
0.34189001 -15.97227001 256.12075806
0.33489999 -15.96912003 256.12606812
0.35567999 -16.00234032 256.09576416
0.36135000 -16.00399017 256.09481812
0.35913000 -15.99769020 256.09451294
0.36309001 -16.00024033 256.09197998
0.35721001 -15.99545002 256.10000610
0.36335999 -15.99841022 256.10012817
0.36763999 -16.00399017 256.09454346
0.37450999 -16.00527954 256.09396362
0.36983001 -16.00317955 256.10061646
0.38080001 -16.00416946 256.09423828
0.37748000 -16.00173950 256.09927368
0.35969999 -15.98896980 256.09524536
0.35679001 -15.98441029 256.09359741
0.35343000 -15.98297024 256.09701538
0.35325000 -15.99232960 256.09985352
0.35979000 -15.99151993 256.10177612
0.35661000 -15.98719978 256.10101318
0.36943999 -15.99098015 256.09646606
0.37661001 -15.99104023 256.09378052
0.37535000 -15.98404980 256.09359741
0.35993999 -15.98013020 256.09326172
0.35828999 -15.97554016 256.09591675
0.36339000 -15.97251034 256.09335327
0.35585999 -15.96996021 256.09841919
0.36342001 -15.97097969 256.09863281
0.37136000 -15.97595978 256.09530640
0.37259001 -15.98034000 256.09851074
0.36743000 -15.97529984 256.10287476
0.35486999 -15.98250008 256.10772705
0.36278999 -15.98719978 256.10421753
0.36267000 -15.97194004 256.10430908
0.35787001 -15.96854973 256.10430908
0.35789999 -15.96848965 256.11007690
0.38227001 -15.99145985 256.09252930
0.38032001 -15.99394989 256.09667969
0.33451000 -15.96442032 256.11441040
0.32978001 -15.95901966 256.11709595
0.33544001 -15.95703983 256.11639404
0.33952001 -15.96333981 256.10873413
0.34527999 -15.96728992 256.10485840
0.34845001 -15.96348953 256.10714722
0.34459001 -15.96339989 256.11138916
0.34461999 -15.96175003 256.11718750
0.34955999 -15.96442032 256.11288452
0.32251999 -15.95956039 256.12371826
0.32222000 -15.96490002 256.12399292
0.31782001 -15.96364021 256.12872314
0.31545001 -15.95716000 256.12985229
0.32104999 -15.95380020 256.12573242
0.31942999 -15.94991016 256.12988281
0.30888000 -15.95878029 256.13574219
0.30214000 -15.95499992 256.13842773
0.29872000 -15.95508957 256.14300537
0.30599999 -15.95847988 256.14196777
0.31443000 -15.96358013 256.13552856
0.32113999 -15.96477985 256.13305664
0.31761000 -15.96195984 256.14224243
0.31347001 -15.95925999 256.14410400
0.30785999 -15.94256020 256.13589478
0.30873001 -15.94783974 256.13742065
0.30112001 -15.94954967 256.13977051
0.30250001 -15.94384956 256.13827515
0.30259001 -15.94373035 256.14404297
0.31209001 -15.95394993 256.13366699
0.32251999 -15.95114040 256.13424683
0.31834999 -15.94867992 256.13708496
0.31512001 -15.94678974 256.13357544
0.32203999 -15.95170021 256.13995361
0.31838000 -15.94861984 256.14288330
0.31281000 -15.94544029 256.14074707
0.32591000 -15.96267986 256.11907959
0.32668999 -15.95559978 256.12100220
0.33221000 -15.95551014 256.12115479
0.33489999 -15.95670986 256.12573242
0.33215001 -15.95557022 256.13000488
0.33047000 -15.96700001 256.12979126
0.33769000 -15.95907974 256.12139893
0.32644999 -15.95328999 256.12707520
0.32677999 -15.96543980 256.13281250
0.35093999 -15.96601009 256.10250854
0.35148001 -15.96685028 256.11715698
0.30954000 -15.94441986 256.14566040
0.30651000 -15.95493984 256.14758301
0.51139998 -16.00612068 256.30566406
0.50870001 -16.01936913 256.31317139
0.51209003 -16.01486969 256.30752563
0.50861001 -16.01107025 256.31167603
0.50494999 -16.01696968 256.31854248
0.50303000 -16.01098061 256.31820679
0.50915003 -16.00414085 256.31170654
0.50804001 -15.99841022 256.31304932
0.50392997 -16.00218964 256.31607056
0.50093001 -15.99742031 256.31887817
0.49845001 -16.01226044 256.32534790
0.49842000 -16.01571083 256.32907104
0.49511999 -16.01074028 256.32971191
0.50177002 -16.01750946 256.32467651
0.50738001 -16.01906967 256.32586670
0.50533998 -16.02123070 256.33056641
0.50852001 -16.01816940 256.33331299
0.49862999 -16.00515938 256.32501221
0.50278997 -16.01615906 256.33322144
0.49529999 -15.99895000 256.32498169
0.49151999 -16.00513077 256.33123779
0.49167001 -15.99761009 256.33175659
0.50243002 -16.00597000 256.32095337
0.50465000 -15.99269009 256.31900024
0.51107001 -15.99427986 256.31600952
0.51095003 -15.98875999 256.31982422
0.49805999 -15.99116039 256.32467651
0.49131000 -15.99131012 256.33160400
0.49617001 -15.98917961 256.33023071
0.49197000 -15.98462009 256.33300781
0.50512999 -15.98773956 256.32458496
0.51157999 -15.98630047 256.32647705
0.50323999 -15.98561001 256.32971191
0.50086999 -15.98136044 256.33120728
0.50902998 -15.98184013 256.32922363
0.48511001 -16.00275993 256.33978271
0.48486999 -15.99715042 256.33816528
0.48514000 -16.00605965 256.34429932
0.48142001 -15.99794006 256.34341431
0.47137001 -15.99580956 256.35806274
0.47812000 -16.00242996 256.35229492
0.48486999 -16.00503922 256.35064697
0.47836000 -15.99740028 256.34753418
0.47503000 -15.99822998 256.35357666
0.48210999 -16.00114059 256.34881592
0.48517001 -16.00732040 256.35711670
0.47751999 -16.00326920 256.35812378
0.48306999 -16.00246048 256.35989380
0.47578001 -15.99864960 256.35955811
0.49812001 -16.01486969 256.33697510
0.49202999 -16.01140022 256.33813477
0.49851000 -16.01571083 256.34375000
0.49553999 -16.01164055 256.34298706
0.48978001 -16.01100922 256.34396362
0.50708002 -16.01906967 256.33850098
0.50248998 -16.01460075 256.34085083
0.51002002 -16.01490021 256.34185791
0.50326997 -16.01166916 256.34671021
0.50996000 -16.01128006 256.34652710
0.48800999 -16.00230980 256.33511353
0.48800999 -16.00711060 256.33999634
0.49401000 -16.01230049 256.35070801
0.48783001 -16.00996017 256.34921265
0.49206001 -16.00933075 256.35726929
0.49908000 -16.01020050 256.35049438
0.48963001 -16.00480080 256.35852051
0.49641001 -16.00614929 256.35800171
0.50528002 -16.00819016 256.35128784
0.50941998 -16.00182915 256.35369873
0.50305998 -16.00350952 256.35763550
0.50540000 -15.99874020 256.35977173
0.51169997 -15.99740028 256.35644531
0.48343000 -15.98888016 256.33963013
0.47997999 -15.99059010 256.34509277
0.48274001 -15.98521996 256.34375000
0.48457000 -15.97916985 256.34329224
0.47152001 -15.99092007 256.35562134
0.46814001 -15.98836994 256.36022949
0.47143000 -15.98285007 256.35549927
0.47461000 -15.99046993 256.35095215
0.47746000 -15.98289013 256.35049438
0.46825999 -15.98120975 256.35913086
0.47053000 -15.97572041 256.35824585
0.47839001 -15.97601986 256.35284424
0.48177999 -15.97815037 256.34762573
0.48315999 -15.97418976 256.35284424
0.47734001 -15.97212029 256.35751343
0.48184001 -15.96930027 256.35739136
0.48686999 -15.98608971 256.33657837
0.48743999 -15.98363018 256.34106445
0.51068002 -15.98196030 256.33654785
0.49476001 -15.98157024 256.33587646
0.49146000 -15.97595978 256.34323120
0.49866000 -15.97877979 256.34213257
0.50278997 -15.98025036 256.33645630
0.50441003 -15.97937965 256.34335327
0.51007998 -15.98042965 256.34228516
0.51187998 -15.98326969 256.35644531
0.48620999 -15.97562981 256.34805298
0.49766999 -15.97521019 256.34790039
0.49020001 -15.97163963 256.35284424
0.49307999 -15.97317028 256.34805298
0.49485001 -15.97181988 256.35647583
0.48888001 -15.96975040 256.35931396
0.50414002 -15.97632027 256.35083008
0.51178998 -15.98046017 256.34939575
0.50492001 -15.97739983 256.35650635
0.50843000 -15.98036957 256.35934448
0.50033998 -15.97401047 256.35650635
0.45778999 -15.98383999 256.37475586
0.45387000 -15.98196030 256.38067627
0.45725000 -15.98707962 256.38073730
0.45620000 -15.98968983 256.38519287
0.45008999 -15.98723030 256.38696289
0.45749000 -15.97824001 256.37551880
0.45758000 -15.97029018 256.37664795
0.45416999 -15.97089005 256.38073730
0.45138001 -15.97821045 256.38507080
0.45117000 -15.97124958 256.38543701
0.44345999 -16.01244926 256.39999390
0.44430000 -16.00897026 256.39501953
0.44868001 -16.01074028 256.39916992
0.44349000 -16.00090027 256.39288330
0.44451001 -16.00392914 256.39990234
0.44868001 -16.00428963 256.39416504
0.44865000 -15.99713039 256.39077759
0.45533001 -15.99557018 256.39385986
0.45080999 -16.00251961 256.40072632
0.44679001 -15.99580956 256.39538574
0.44415000 -16.01582909 256.40554810
0.44453999 -16.01091957 256.41125488
0.44880000 -16.01429939 256.40316772
0.44631001 -16.01724052 256.41259766
0.45036000 -16.01226044 256.40887451
0.45737001 -16.01070976 256.40936279
0.44312999 -16.00683975 256.40463257
0.45796999 -16.00746918 256.40515137
0.45006001 -16.00485992 256.40637207
0.44514000 -15.99979019 256.40426636
0.44975999 -16.00626945 256.41415405
0.44885999 -15.99625969 256.40881348
0.44790000 -15.99085999 256.39083862
0.45710000 -15.99151993 256.39123535
0.44793001 -15.98528004 256.39321899
0.44880000 -15.99079990 256.39804077
0.45225000 -15.99388981 256.40039063
0.45782000 -15.99160957 256.39791870
0.44709000 -15.98614979 256.40054321
0.44451001 -15.97632027 256.39733887
0.44457000 -15.97052956 256.39587402
0.44847000 -15.97964954 256.39102173
0.44672999 -15.96875954 256.39141846
0.44316000 -15.98192978 256.40789795
0.44889000 -15.99053001 256.40527344
0.44907001 -15.98542976 256.40557861
0.45664999 -15.98596954 256.40451050
0.44790000 -15.98867035 256.41174316
0.45276001 -15.98359966 256.41262817
0.44343001 -15.98025036 256.40219116
0.44543999 -15.98256016 256.41445923
0.43942001 -15.97521019 256.40588379
0.44082001 -15.97107029 256.40191650
0.43777001 -15.97743034 256.41265869
0.43827999 -15.96858025 256.40676880
0.43450001 -15.96998978 256.41253662
0.46948999 -15.99715042 256.36505127
0.45815000 -15.98048973 256.41366577
0.46886000 -15.99802017 256.37164307
0.47644001 -16.00234032 256.36434937
0.48508000 -16.00513077 256.36389160
0.47764000 -16.00206947 256.37088013
0.47422001 -15.99715042 256.36795044
0.48324999 -15.99993992 256.37109375
0.46748000 -15.99629021 256.37805176
0.46994001 -15.99559975 256.38577271
0.47554001 -15.99728012 256.37524414
0.47457999 -15.99563026 256.38031006
0.48210999 -15.99748039 256.37765503
0.48993000 -16.00296974 256.36489868
0.49812001 -16.00213051 256.36206055
0.49800000 -15.99827003 256.36550903
0.49032000 -15.99843979 256.37045288
0.49551001 -15.99553967 256.36947632
0.50216001 -15.99563026 256.36450195
0.46472001 -15.99053001 256.36663818
0.48662999 -15.99674034 256.37561035
0.46441999 -15.98363018 256.36459351
0.46048999 -15.98878956 256.37396240
0.46603999 -15.99050045 256.37155151
0.46057999 -15.98390007 256.36990356
0.46280000 -15.97725010 256.36605835
0.46487001 -15.97212029 256.36538696
0.47137001 -15.96905994 256.36190796
0.46127000 -15.97437000 256.37039185
0.47751999 -15.97025967 256.36251831
0.46199000 -15.99188042 256.37808228
0.46090999 -15.99211979 256.38400269
0.47628999 -15.99452019 256.38516235
0.48163000 -15.99190998 256.38345337
0.48495999 -15.98836994 256.38470459
0.46250001 -15.96887970 256.37405396
0.49643999 -15.99038029 256.37310791
0.51169997 -15.98873043 256.36203003
0.50686997 -15.98686981 256.36627197
0.50257999 -15.98272991 256.37057495
0.48969001 -15.96951008 256.36541748
0.49833000 -15.97208977 256.36224365
0.49458000 -15.96965981 256.36648560
0.49854001 -15.97401047 256.36785889
0.49296001 -15.96963024 256.37161255
0.50455999 -15.98019028 256.36495972
0.49976999 -15.97721958 256.37210083
0.49167001 -15.99199963 256.37634277
0.49473000 -15.98834038 256.37896729
0.49821001 -15.98198032 256.37908936
0.49191001 -15.97082996 256.38067627
0.49553999 -15.97340965 256.37637329
0.49146000 -15.97871971 256.38619995
0.49476001 -15.97889996 256.38195801
0.48987001 -15.97346973 256.38629150
0.46129999 -16.01543999 256.41073608
0.46427000 -15.99137020 256.38830566
0.46963999 -15.99122047 256.39147949
0.46160001 -15.99127960 256.39450073
0.46577001 -15.98869991 256.39819336
0.46838000 -15.98497963 256.40084839
0.46028000 -15.98762035 256.40063477
0.47235999 -15.98783016 256.39404297
0.47698000 -15.98863983 256.39035034
0.48196000 -15.98375034 256.39111328
0.47494000 -15.98476982 256.39724731
0.48511001 -15.96963024 256.39343262
0.47749001 -15.97799969 256.40051270
0.48012999 -15.98126984 256.39572144
0.48187000 -15.96887970 256.39767456
0.46175000 -15.98548985 256.40509033
0.47152001 -15.98048973 256.40362549
0.46571001 -15.98178005 256.40768433
0.46292001 -15.97811985 256.41394043
0.46915999 -15.97539043 256.41152954
0.47788000 -15.96918011 256.40332031
0.47448999 -15.97356033 256.40747070
0.48912001 -15.97673988 256.39190674
0.45671001 -15.96553040 256.38049316
0.45392999 -15.96378994 256.38494873
0.44406000 -15.96436024 256.39675903
0.44411999 -15.95899010 256.39871216
0.44771999 -15.96364021 256.39135742
0.45554000 -15.95913982 256.38891602
0.44970000 -15.95781994 256.39318848
0.44828999 -15.95545006 256.39752197
0.45752001 -15.95598984 256.39575195
0.45405000 -15.95170021 256.40008545
0.43735000 -15.96226025 256.40603638
0.44018999 -15.96487045 256.40197754
0.44196001 -15.95604992 256.40762329
0.43417001 -15.96403027 256.41262817
0.43546000 -15.95820999 256.41146851
0.43783000 -15.94987965 256.41168213
0.44286001 -15.94931030 256.40924072
0.44922000 -15.95275021 256.40252686
0.44909999 -15.95030022 256.40902710
0.45578000 -15.95071983 256.40771484
0.45631999 -15.95005989 256.41433716
0.44475001 -15.94639969 256.41339111
0.46349001 -15.96409035 256.37280273
0.46834999 -15.96720028 256.36932373
0.47062001 -15.96261978 256.37133789
