0.78489554 -16.42138290 256.39266968
0.79023004 -16.41465950 256.39257813
0.77728999 -16.42477036 256.40036011
0.80130500 -16.42324829 256.39279175
0.81529200 -16.42280960 256.39077759
0.79942000 -16.41294479 256.39102173
0.81437200 -16.41147423 256.39340210
0.83102143 -16.42078781 256.39334106
0.84470499 -16.41946793 256.39178467
0.82840145 -16.40773582 256.39175415
0.84578001 -16.40253067 256.39355469
0.84399998 -16.39864922 256.38977051
0.85391998 -16.40117073 256.33822632
0.85488003 -16.40472031 256.34863281
0.85491002 -16.39171028 256.33703613
0.85703003 -16.37807655 256.33636475
0.85723197 -16.39267731 256.34960938
0.85491002 -16.38228035 256.34957886
0.85551000 -16.40753937 256.36404419
0.85551000 -16.40694046 256.38058472
0.85641599 -16.39175606 256.36093140
0.85367000 -16.39609337 256.37936401
0.85245001 -16.36927032 256.33001709
0.96601999 -16.34979248 256.33166504
0.96534503 -16.33913994 256.33001709
0.80115998 -16.31438065 256.61407471
0.50011003 -16.01488495 256.32501221
0.49932250 -16.00187492 256.32244873
0.49805999 -15.99116039 256.32467651
0.49723598 -16.01346397 256.33496094
0.48649999 -16.00233269 256.33825684
0.49159500 -16.00136948 256.33148193
0.48783001 -16.00996017 256.34921265
0.49538401 -16.01217270 256.34637451
0.48072141 -16.00117683 256.34866333
0.47147501 -15.98688507 256.35556030
0.48591334 -15.98620033 256.33908081
0.49501601 -15.98560810 256.33239746
0.49866000 -15.97877979 256.34213257
0.47869751 -15.98729229 256.34756470
0.48282200 -15.97663212 256.34893799
0.49460000 -15.97363472 256.35083008
0.47043002 -15.99647999 256.36157227
0.46816999 -15.99715519 256.37484741
0.49206001 -16.00933075 256.35726929
0.47979668 -16.00203705 256.36364746
0.49501002 -16.00049210 256.36416626
0.47902998 -15.99633026 256.37878418
0.46522400 -15.98552799 256.36410522
0.46653166 -15.97262001 256.36523438
0.45627749 -15.98564243 256.38034058
0.46235749 -15.99082279 256.37689209
0.45475000 -15.97240162 256.38064575
0.46250001 -15.96887970 256.37405396
0.50257999 -15.98272991 256.37057495
0.47998750 -15.96971512 256.36059570
0.49400401 -15.97100449 256.36425781
0.48329499 -15.99013996 256.38409424
0.49526250 -15.98817539 256.37689209
0.49327713 -15.97204018 256.37774658
0.44362000 -16.03145981 256.42349243
0.44073001 -16.03705978 256.42944336
0.44619000 -16.02651024 256.41439819
0.45222571 -16.02935791 256.42330933
0.45358801 -16.02970695 256.43576050
0.46081999 -16.02480888 256.43469238
0.44387999 -16.01070976 256.39752197
0.44400001 -16.00241470 256.39639282
0.44434500 -16.01337433 256.40838623
0.44312999 -16.00683975 256.40463257
0.44451001 -15.97632027 256.39733887
0.44329500 -15.98109055 256.40502930
0.43815801 -15.97245598 256.40795898
0.44212499 -16.01686096 256.42410278
0.44256750 -16.00370598 256.42257690
0.44233501 -15.98050499 256.42138672
0.42794502 -15.97099495 256.42834473
0.43302250 -15.97368717 256.42190552
0.43906751 -15.98727036 256.43185425
0.42566666 -15.97124004 256.43807983
0.43692666 -15.97642517 256.43569946
0.44868001 -16.01074028 256.39916992
0.44986251 -15.99819946 256.39355469
0.46994001 -15.99559975 256.38577271
0.44986600 -16.01539993 256.40899658
0.46129999 -16.01543999 256.41073608
0.45043331 -16.00286102 256.40658569
0.45115858 -15.98813534 256.39276123
0.46672800 -15.99007988 256.39331055
0.44564998 -15.96964455 256.39364624
0.45091110 -15.98636532 256.40765381
0.46552801 -15.98407173 256.40356445
0.46604002 -15.97675514 256.41271973
0.47850251 -15.98460770 256.39361572
0.48348999 -15.96925545 256.39556885
0.49015000 -15.97630978 256.38812256
0.47628999 -15.97153759 256.40472412
0.45208365 -16.01512909 256.42098999
0.46554500 -16.01716614 256.42257690
0.45318499 -16.00239563 256.42205811
0.45714000 -16.01596260 256.43777466
0.46560445 -16.01551628 256.43719482
0.45857000 -16.00419998 256.43173218
0.47365001 -16.01814079 256.42944336
0.45126000 -15.98575783 256.42117310
0.45343667 -15.97605991 256.42584229
0.46506000 -15.97002316 256.42004395
0.44992501 -15.98367500 256.43469238
0.45101833 -15.97351456 256.43527222
0.45392999 -15.96378994 256.38494873
0.46532124 -15.96094704 256.37918091
0.47595999 -15.96465969 256.36633301
0.48114401 -15.96332169 256.37802124
0.44409001 -15.96167564 256.39773560
0.43782601 -15.96108437 256.40795898
0.44034499 -15.94959450 256.41046143
0.42731202 -15.95881557 256.42352295
0.43169498 -15.95284462 256.41900635
0.42967001 -15.94756985 256.42694092
0.43838999 -15.94533157 256.42285156
0.41977572 -15.95747852 256.43707275
0.42366874 -15.94478798 256.43811035
0.43681800 -15.94252396 256.43618774
0.45213667 -15.95728970 256.39447021
0.46733251 -15.95574188 256.39440918
0.45249999 -15.95173454 256.40512085
0.46721166 -15.95621681 256.40869141
0.45005667 -15.94892025 256.41226196
0.47881001 -15.96181965 256.39364624
0.47485000 -15.95866013 256.40066528
0.46354249 -15.95784283 256.42343140
0.45355999 -15.94815826 256.42404175
0.46103001 -15.95009041 256.41772461
0.45811999 -15.96005440 256.43750000
0.46276999 -15.96210957 256.43038940
0.45005250 -15.94567299 256.43603516
0.45607999 -16.02456093 256.45532227
0.46213999 -16.02379608 256.45068359
0.45639500 -16.02534103 256.46533203
0.45401999 -16.02498055 256.47738647
0.42388999 -15.96942616 256.45019531
0.43931401 -15.97065544 256.44992065
0.42436334 -15.96776676 256.46337891
0.45704001 -16.01759529 256.44900513
0.46689999 -16.01549721 256.45095825
0.45465001 -16.02050972 256.46792603
0.46588221 -16.01427460 256.46508789
0.45796999 -16.00435066 256.47106934
0.46142000 -16.00715446 256.46841431
0.44664001 -15.97338009 256.45156860
0.45460600 -16.01534081 256.48065186
0.46516749 -16.01260376 256.47967529
0.45420668 -16.00238037 256.48168945
0.46205002 -16.00416946 256.48297119
0.45079499 -16.01059532 256.49481201
0.45947000 -16.01055908 256.49249268
0.45194751 -16.00044441 256.49127197
0.38333800 -15.94387341 256.51028442
0.37880999 -15.94301987 256.52404785
0.38293600 -15.92995834 256.51116943
0.37666801 -15.92817593 256.52377319
0.38180751 -15.91831779 256.52655029
0.37795600 -15.94579983 256.53750610
0.36830199 -15.93931007 256.55227661
0.37776667 -15.94398022 256.55337524
0.36961401 -15.92758751 256.53982544
0.37270999 -15.92794514 256.53338623
0.37963399 -15.91584969 256.53939819
0.36508751 -15.92816257 256.55346680
0.36662251 -15.91736507 256.55377197
0.37849000 -15.91224384 256.55218506
0.41237000 -15.95641327 256.45257568
0.41311249 -15.94363213 256.45413208
0.40970874 -15.95981216 256.46453857
0.40489200 -15.94289017 256.46792603
0.44295001 -15.96487045 256.45486450
0.42195857 -15.93858814 256.45056152
0.43779999 -15.93793964 256.44479370
0.42686999 -15.96487045 256.46923828
0.43914166 -15.95793343 256.46597290
0.44025999 -15.94064713 256.46325684
0.41207001 -15.93467999 256.46731567
0.42708999 -15.93566990 256.45758057
0.43635800 -15.93303585 256.45074463
0.42143250 -15.93385506 256.46575928
0.43210000 -15.93498039 256.46545410
0.39965999 -15.95461369 256.47952271
0.40781501 -15.96148777 256.47976685
0.39825749 -15.94339275 256.47979736
0.39734000 -15.95598984 256.49697876
0.40775749 -15.95871258 256.49407959
0.39157000 -15.94272614 256.49307251
0.42307571 -15.96042633 256.48043823
0.43287998 -15.95590305 256.47637939
0.43531001 -15.94409752 256.47958374
0.42216998 -15.95510769 256.49249268
0.42747998 -15.94192028 256.49456787
0.43108001 -15.94643021 256.49166870
0.40020001 -15.93360043 256.48196411
0.40959167 -15.93045998 256.47994995
0.39567834 -15.92962456 256.49432373
0.40862599 -15.92580032 256.49652100
0.42447752 -15.93282700 256.47973633
0.43006000 -15.93554974 256.47824097
0.42148802 -15.93226242 256.49533081
0.45316002 -15.95913029 256.44799805
0.44782200 -15.94488144 256.44992065
0.44667000 -15.94871044 256.45895386
0.39253250 -15.95343781 256.50756836
0.40569833 -15.95372677 256.51000977
0.41135001 -15.94828987 256.51339722
0.39350200 -15.95146847 256.52294922
0.39425999 -15.95051003 256.53027344
0.40401998 -15.94723034 256.52642822
0.41672000 -15.95125961 256.50354004
0.42023000 -15.94297981 256.50646973
0.39072666 -15.92439938 256.50686646
0.40742499 -15.92309952 256.50750732
0.39171499 -15.92078018 256.51354980
0.40362000 -15.92125034 256.51177979
0.41045001 -15.92523003 256.52096558
0.39420399 -15.91814804 256.52377319
0.40323001 -15.92042542 256.52267456
0.41687000 -15.92916012 256.50891113
0.39477834 -15.94403172 256.53869629
0.40283999 -15.93626976 256.53588867
0.39101401 -15.94049644 256.55172729
0.39423001 -15.91632462 256.53894043
0.39489001 -15.93146992 256.55377197
0.39178002 -15.91674995 256.55340576
0.35661000 -15.93653011 256.58718872
0.36610749 -15.94030190 256.56726074
0.37933499 -15.94124794 256.56640625
0.36589801 -15.93884182 256.58251953
0.37562001 -15.93831444 256.57879639
0.35571000 -15.92298031 256.57141113
0.35322002 -15.92792034 256.58102417
0.35132599 -15.91541767 256.58187866
0.36017999 -15.92920494 256.56527710
0.38359001 -15.93435001 256.57409668
0.36334500 -15.91280174 256.56851196
0.37836999 -15.90948391 256.56604004
0.37988001 -15.93157482 256.58279419
0.36615998 -15.90782547 256.57751465
0.37887001 -15.91056442 256.58273315
0.35631001 -15.93663025 256.59384155
0.36273998 -15.93773079 256.59585571
0.34788167 -15.92858696 256.59707642
0.34576833 -15.91281033 256.59634399
0.34112501 -15.92607021 256.61367798
0.34990200 -15.93072033 256.61187744
0.33854800 -15.91542816 256.61145020
0.36583751 -15.93353271 256.60000610
0.37638599 -15.92643642 256.59616089
0.37862000 -15.91325569 256.59631348
0.36501250 -15.92798996 256.61013794
0.36785001 -15.92113018 256.61373901
0.37349001 -15.91339970 256.60833740
0.35468999 -15.90678978 256.58541870
0.36591333 -15.90527630 256.58456421
0.35220999 -15.90254784 256.59912109
0.33983001 -15.90282059 256.61102295
0.35015666 -15.89861488 256.61120605
0.36413166 -15.90239525 256.59576416
0.36583832 -15.90303993 256.61090088
0.32713997 -15.91157532 256.64202881
0.32407999 -15.91303635 256.65274048
0.32163221 -15.91307640 256.66928101
0.33989000 -15.92605972 256.62814331
0.35130501 -15.92837238 256.62557983
0.33350998 -15.91369724 256.62329102
0.33853000 -15.92407513 256.63818359
0.34930667 -15.92498016 256.63677979
0.33112252 -15.91789722 256.63607788
0.35224751 -15.91798019 256.64212036
0.36433715 -15.91543865 256.62512207
0.35993001 -15.91191006 256.63604736
0.33779502 -15.92225075 256.64794922
0.33611250 -15.91842270 256.65533447
0.34963751 -15.91373539 256.65304565
0.33441001 -15.91479969 256.66992188
0.34493500 -15.91012001 256.66430664
0.32701999 -15.89923286 256.64044189
0.32112500 -15.90001488 256.65444946
0.32405001 -15.88893509 256.65557861
0.31272000 -15.90373993 256.67630005
0.31670800 -15.89663029 256.66796875
0.31285501 -15.88831520 256.67163086
0.32285500 -15.88333035 256.66851807
0.33447799 -15.89960003 256.62493896
0.35198334 -15.89474010 256.62686157
0.34228000 -15.89153004 256.63095093
0.32994500 -15.90039444 256.63708496
0.35409999 -15.89601994 256.63815308
0.33624333 -15.88996029 256.64074707
0.34744200 -15.89048862 256.64224243
0.36443502 -15.90225506 256.62274170
0.36084002 -15.90171432 256.63739014
0.35382858 -15.89797592 256.65411377
0.33478200 -15.88667393 256.65429688
0.34676498 -15.88903522 256.65444946
0.34279001 -15.90388966 256.67449951
0.34791750 -15.89850521 256.66928101
0.33793798 -15.88387203 256.66864014
0.39026499 -15.92901039 256.56561279
0.38879499 -15.91427517 256.56478882
0.38688999 -15.92310047 256.58444214
0.59519398 -16.08560944 256.21841431
0.61220431 -16.08920288 256.21771240
0.60017002 -16.08332062 256.22705078
0.60623002 -16.08235931 256.22708130
0.62741995 -16.08568954 256.21337891
0.69903398 -16.09894562 256.21661377
0.68878502 -16.08940125 256.21542358
0.69542998 -16.08949280 256.22387695
0.70068502 -16.08763504 256.23397827
0.71212000 -16.10056305 256.21823120
0.72122997 -16.09626961 256.21148682
0.72778165 -16.08672142 256.22018433
0.71269000 -16.09584999 256.22976685
0.71388501 -16.09111023 256.23468018
0.72325498 -16.08505630 256.23242188
0.70120001 -16.08250999 256.24270630
0.71314168 -16.08542442 256.24636841
0.72441000 -16.08172989 256.24279785
0.71179003 -16.08160973 256.25601196
0.79087001 -16.31053925 256.23132324
0.79215997 -16.27416992 256.24945068
0.79099202 -16.26398659 256.24868774
0.79040253 -16.27426147 256.26278687
0.78702199 -16.26411819 256.26046753
0.80558997 -16.28668022 256.22265625
0.81212497 -16.29153633 256.21865845
0.79435003 -16.30466080 256.23043823
0.80191833 -16.29341507 256.23217773
0.81616163 -16.29315567 256.23449707
0.82777143 -16.30597878 256.21954346
0.83248144 -16.30636024 256.23187256
0.84618002 -16.30096626 256.23751831
0.82725501 -16.29354095 256.23345947
0.84786999 -16.28986931 256.23043823
0.80431998 -16.27858734 256.21945190
0.80931002 -16.27072906 256.21347046
0.80447251 -16.26479721 256.22161865
0.81384337 -16.25879288 256.21697998
0.79763800 -16.27791023 256.23327637
0.79863429 -16.26219368 256.23385620
0.84761500 -16.27737236 256.22088623
0.83110249 -16.25908470 256.21737671
0.84279251 -16.26710701 256.21990967
0.84076750 -16.27566910 256.23330688
0.83277667 -16.26121140 256.23327637
0.83947003 -16.26737022 256.23107910
0.80442333 -16.28707695 256.24377441
0.81600004 -16.28746605 256.24694824
0.81392998 -16.28499985 256.25616455
0.84367502 -16.30898476 256.24758911
0.82897997 -16.29118538 256.24212646
0.79866797 -16.28051186 256.24868774
0.82201999 -16.28220940 256.25094604
0.79509997 -16.25617981 256.24218750
0.79944801 -16.28125000 256.26174927
0.81615716 -16.27903748 256.26278687
0.82208002 -16.26697922 256.26419067
0.83065999 -16.27705002 256.24761963
0.82897401 -16.26176834 256.24765015
0.82283002 -16.27767944 256.25546265
0.82600248 -16.26312447 256.25955200
0.79060000 -16.25418091 256.25015259
0.78957748 -16.25021935 256.26202393
0.81221998 -16.25487137 256.22021484
0.80294502 -16.25241089 256.23626709
0.81514502 -16.25273895 256.23202515
0.82618999 -16.25559044 256.22549438
0.82244003 -16.25387955 256.23486328
0.80012250 -16.24922943 256.24755859
0.81343597 -16.24836540 256.24758911
0.80072570 -16.24472237 256.26211548
0.81634331 -16.24778938 256.26147461
0.82265002 -16.25241089 256.24270630
0.82367003 -16.25358009 256.26556396
0.78732502 -16.27267456 256.27853394
0.78302747 -16.26180458 256.27542114
0.78887248 -16.27451515 256.29144287
0.78038001 -16.26575851 256.29147339
0.78776670 -16.27324867 256.30523682
0.77534997 -16.25973892 256.30715942
0.77926999 -16.26749039 256.30383301
0.78673750 -16.27261353 256.32000732
0.77356249 -16.26350021 256.32061768
0.77898502 -16.26919937 256.32260132
0.80176669 -16.27912521 256.27685547
0.81542999 -16.27433395 256.27532959
0.81805503 -16.26420021 256.27722168
0.80292600 -16.27552605 256.29229736
0.81106502 -16.27280426 256.28839111
0.81291747 -16.26504517 256.29211426
0.79914999 -16.27343369 256.30587769
0.80508500 -16.26892853 256.30783081
0.81142199 -16.26102257 256.30584717
0.79612005 -16.27278137 256.31774902
0.80315000 -16.26547241 256.32189941
0.78636432 -16.24872780 256.27691650
0.77737004 -16.25271988 256.29531860
0.78450835 -16.24504089 256.29165649
0.78874999 -16.23913002 256.29473877
0.77597749 -16.24761772 256.30853271
0.78270495 -16.24252510 256.30596924
0.78820664 -16.23970032 256.30667114
0.77322835 -16.24805450 256.32171631
0.78594601 -16.23767281 256.32009888
0.80072004 -16.24196053 256.27883911
0.81449431 -16.24806786 256.27673340
0.79933000 -16.24110031 256.27758789
0.80366665 -16.24196053 256.28829956
0.81247199 -16.24898338 256.29275513
0.79769999 -16.23970985 256.29446411
0.80581498 -16.24283981 256.30560303
0.81031501 -16.25026512 256.30712891
0.79903001 -16.23904037 256.30587769
0.80514669 -16.24370956 256.32272339
0.80878496 -16.25113487 256.32043457
0.79822755 -16.23880768 256.31924438
0.85993201 -16.30802727 256.21987915
0.87404996 -16.30618286 256.21633911
0.86018401 -16.29164314 256.21984863
0.85539001 -16.30770493 256.23205566
0.88677114 -16.30460548 256.21939087
0.90206403 -16.30456924 256.21951294
0.89160252 -16.30689621 256.22982788
0.90339142 -16.30926704 256.23287964
0.85418999 -16.28232956 256.21624756
0.91640800 -16.30942917 256.22018433
0.92575997 -16.31311989 256.21978760
0.91715753 -16.31101990 256.23419189
0.92404997 -16.31039047 256.22988892
0.91700500 -16.31214523 256.24423218
0.78770000 -16.27213478 256.33370972
0.77277249 -16.26419830 256.33523560
0.78114498 -16.26939392 256.33609009
0.77054429 -16.26383018 256.34881592
0.78550804 -16.26818085 256.34854126
0.76178998 -16.25956917 256.38500977
0.76881284 -16.26409531 256.36514282
0.78565001 -16.26707649 256.36437988
0.77073836 -16.26624489 256.37966919
0.78654999 -16.26324463 256.38009644
0.79945374 -16.26333427 256.33547974
0.79644251 -16.26269722 256.34863281
0.79592502 -16.25947952 256.36068726
0.76790398 -16.25004578 256.33511353
0.77446669 -16.24003601 256.33459473
0.78476572 -16.23612976 256.33389282
0.76621997 -16.24966812 256.34860229
0.77068001 -16.23859024 256.35040283
0.78447831 -16.23476982 256.34863281
0.76371998 -16.25164986 256.36276245
0.76059288 -16.25007248 256.37869263
0.76059002 -16.24048042 256.38473511
0.76526999 -16.24547958 256.36007690
0.77236664 -16.23646927 256.36425781
0.78444999 -16.23373032 256.36282349
0.77222168 -16.23560524 256.37789917
0.78660834 -16.23547554 256.37820435
0.80510998 -16.24889374 256.33358765
0.79838002 -16.23850060 256.33374023
0.80202401 -16.24945831 256.34783936
0.79690999 -16.23896980 256.34994507
0.79973000 -16.24872971 256.36349487
0.79466498 -16.23876953 256.36273193
0.79525000 -16.24713898 256.37948608
0.79402000 -16.24095917 256.37838745
0.76066333 -16.25971413 256.39425659
0.75895798 -16.26059151 256.40948486
0.77125001 -16.26737976 256.39471436
0.78513998 -16.26273537 256.39364624
0.76862401 -16.26684761 256.40832520
0.78216201 -16.26279259 256.40893555
0.76248002 -16.27264023 256.42327881
0.75679803 -16.26129913 256.42333984
0.76007998 -16.27392960 256.43939209
0.75587165 -16.26238441 256.43740845
0.77273667 -16.27647972 256.42083740
0.77050799 -16.26557541 256.42266846
0.78177500 -16.26107216 256.42233276
0.76978505 -16.27511597 256.43756104
0.77926999 -16.27025032 256.43771362
0.77094001 -16.26647949 256.43774414
0.78282499 -16.25954056 256.43676758
0.75725996 -16.24785614 256.39398193
0.76172996 -16.23635483 256.39660645
0.75538003 -16.24759674 256.40600586
0.75877333 -16.23822975 256.41064453
0.79229498 -16.24756432 256.39898682
0.77179170 -16.23418999 256.39239502
0.78601831 -16.23660088 256.39398193
0.78846836 -16.24895477 256.40676880
0.76953602 -16.23443222 256.40740967
0.78490996 -16.23671722 256.40771484
0.75222403 -16.24735451 256.42108154
0.75702751 -16.23666954 256.42333984
0.74790251 -16.24825478 256.43893433
0.75011504 -16.24971008 256.43225098
0.75838715 -16.23366165 256.43524170
0.78769249 -16.24792480 256.42037964
0.77157402 -16.23312950 256.42169189
0.78350747 -16.23826027 256.42178345
0.78481251 -16.24811935 256.43536377
0.77453333 -16.23279953 256.43673706
0.78166997 -16.23828888 256.43481445
0.79509002 -16.25036049 256.38964844
0.55913001 -16.05723953 256.25033569
0.55516005 -16.05736732 256.26116943
0.55544430 -16.04542351 256.25015259
0.55934000 -16.03268051 256.25207520
0.54899752 -16.04636002 256.26190186
0.54575998 -16.03100014 256.26809692
0.55360627 -16.03076553 256.26269531
0.58462715 -16.07453346 256.21917725
0.58199126 -16.05973244 256.21920776
0.58087164 -16.07422256 256.23266602
0.56997401 -16.06065941 256.23538208
0.61267000 -16.08115959 256.22515869
0.59462500 -16.05263519 256.21612549
0.61310798 -16.05682182 256.21859741
0.59772831 -16.07793045 256.23437500
0.61036253 -16.07334900 256.23248291
0.61160398 -16.06059456 256.23379517
0.58072495 -16.05080414 256.22332764
0.56856501 -16.04693222 256.23648071
0.58219665 -16.04323006 256.23339844
0.59369504 -16.04738617 256.22265625
0.60622501 -16.05147934 256.22088623
0.59710199 -16.04643440 256.23318481
0.60662001 -16.05216980 256.22897339
0.57441998 -16.06908035 256.24948120
0.58010000 -16.07170105 256.24639893
0.56500751 -16.06035233 256.24761963
0.58875000 -16.06455040 256.25393677
0.56682253 -16.06354523 256.26098633
0.58215857 -16.06099510 256.26223755
0.59384334 -16.07094002 256.24511719
0.59954000 -16.05964470 256.24737549
0.60658997 -16.06080055 256.24337769
0.59055001 -16.05772972 256.25701904
0.56853998 -16.03813934 256.24423218
0.57979500 -16.03889084 256.24209595
0.56624997 -16.03500938 256.24801636
0.57869667 -16.03569031 256.24942017
0.58668602 -16.04320335 256.26528931
0.56616402 -16.02867889 256.26208496
0.57942998 -16.03211021 256.26190186
0.59494668 -16.04446793 256.24652100
0.59165502 -16.04718018 256.25695801
0.55290198 -16.05527115 256.27667236
0.55034000 -16.05241013 256.28646851
0.53035003 -16.03924942 256.29760742
0.52544999 -16.03017807 256.29278564
0.54352999 -16.04467773 256.27584839
0.53884196 -16.02984047 256.27896118
0.54724997 -16.02633095 256.27133179
0.53795999 -16.04516602 256.29150391
0.55540001 -16.04920006 256.29257202
0.53232002 -16.02986526 256.28704834
0.52713001 -16.03878975 256.30535889
0.51533002 -16.02755547 256.30792236
0.51980501 -16.03358078 256.30688477
0.51423001 -16.02620697 256.32226563
0.52611428 -16.03241158 256.32070923
0.53952998 -16.04300308 256.30743408
0.55175602 -16.04298401 256.30371094
0.55682755 -16.03259277 256.30813599
0.53551495 -16.03941536 256.31658936
0.54137248 -16.02972221 256.32107544
0.55175000 -16.02656937 256.31750488
0.56735802 -16.05709839 256.27551270
0.57819003 -16.05565071 256.27081299
0.56244999 -16.05241013 256.28564453
0.57113504 -16.04714584 256.28302002
0.57871002 -16.04481506 256.27581787
0.56974000 -16.02584076 256.27471924
0.57945001 -16.03427124 256.27362061
0.56657749 -16.04087448 256.29229736
0.57044798 -16.03080368 256.29141235
0.57552999 -16.03721046 256.28482056
0.56272501 -16.02858925 256.30334473
0.52353400 -16.01631927 256.29376221
0.52656996 -16.00637436 256.29608154
0.54158998 -16.02100563 256.28125000
0.55262750 -16.02080154 256.27703857
0.53900999 -16.01406860 256.28762817
0.55517000 -16.01512146 256.29107666
0.53921002 -16.00658989 256.29354858
0.51267803 -16.01622772 256.30621338
0.51229000 -16.00266457 256.30871582
0.52380997 -15.99849319 256.30664063
0.50656998 -16.01781845 256.31857300
0.50749999 -15.99823475 256.31604004
0.55501997 -16.01412582 256.30722046
0.53693503 -16.00044060 256.30422974
0.54842752 -16.00506973 256.30630493
0.54293001 -16.01692390 256.32522583
0.55023003 -16.01554108 256.31970215
0.53910601 -15.99930191 256.31954956
0.52243000 -15.99281025 256.31301880
0.50807750 -15.98887253 256.32247925
0.52343202 -15.99135780 256.32116699
0.56661999 -16.02166367 256.28088379
0.56493998 -16.02038002 256.29086304
0.56187999 -16.02054024 256.30075073
0.62436801 -16.07595062 256.21887207
0.62132001 -16.06512070 256.22003174
0.61932999 -16.07043076 256.22763062
0.69394398 -16.07416916 256.21966553
0.70257252 -16.06190300 256.22042847
0.69663799 -16.07448196 256.23510742
0.70013499 -16.05900955 256.23373413
0.72972715 -16.07350349 256.21643066
0.71278602 -16.06053734 256.21841431
0.72450000 -16.06224251 256.22088623
0.73016500 -16.07549286 256.23303223
0.71394402 -16.05525398 256.23107910
0.72905570 -16.05994987 256.23382568
0.71457499 -16.05001068 256.23632813
0.72219002 -16.05183983 256.23773193
0.70081252 -16.07494736 256.24850464
0.70046663 -16.05851936 256.24606323
0.70266998 -16.07212639 256.25946045
0.70106196 -16.06083298 256.26181030
0.72797000 -16.07394028 256.24905396
0.73401999 -16.05694580 256.24392700
0.71408749 -16.07859421 256.26132202
0.72662002 -16.07331467 256.26065063
0.73308802 -16.06023407 256.26168823
0.70587999 -16.04947090 256.24810791
0.70274502 -16.04770088 256.26251221
0.71342403 -16.04626656 256.24792480
0.72638601 -16.04689598 256.24893188
0.71132332 -16.04018021 256.26202393
0.72890604 -16.04265022 256.26004028
0.71399999 -16.03676033 256.26913452
0.72504002 -16.03702927 256.26580811
0.70432001 -16.06070900 256.27551270
0.71394169 -16.07132339 256.27603149
0.72472501 -16.06965065 256.27539063
0.70801002 -16.06403923 256.28320313
0.73264247 -16.06007767 256.27581787
0.71207166 -16.06174088 256.29187012
0.72828996 -16.06075859 256.29263306
0.70400202 -16.04580116 256.27603149
0.70506400 -16.04805374 256.28973389
0.70503998 -16.03613091 256.28753662
0.71441501 -16.03387070 256.27639771
0.72936285 -16.03319359 256.27767944
0.71084750 -16.03083611 256.29077148
0.72690803 -16.02456093 256.29147339
0.71394998 -16.05535316 256.30554199
0.72685665 -16.05722618 256.30651855
0.72414005 -16.05297852 256.31658936
0.70708752 -16.04120255 256.30432129
0.73289001 -16.05178070 256.30953979
0.70936400 -16.02737617 256.30505371
0.71316499 -16.04601860 256.32000732
0.72955334 -16.05039024 256.32141113
0.70856202 -16.02901268 256.32205200
0.71877003 -16.02257919 256.29602051
0.73003000 -16.01786995 256.29840088
0.71553248 -16.02098846 256.30804443
0.72715664 -16.01661491 256.30865479
0.71355599 -16.01798058 256.31970215
0.72891247 -16.01262474 256.32116699
0.52236998 -16.02416992 256.33035278
0.50970000 -16.01881790 256.33471680
0.52610999 -16.01573372 256.33514404
0.52667499 -16.00188065 256.34069824
0.50945002 -16.01156044 256.34539795
0.51090801 -16.00263596 256.35253906
0.52104002 -16.00266266 256.34561157
0.53649998 -16.01683235 256.32949829
0.53489000 -16.00073814 256.33334351
0.50857198 -15.98276043 256.33343506
0.52083254 -15.98692989 256.33459473
0.51312000 -15.98260212 256.34936523
0.51935500 -15.99075508 256.34851074
0.50449002 -15.97770023 256.35021973
0.53237998 -15.99244976 256.32839966
0.50423002 -16.00112534 256.35870361
0.50936002 -15.98550034 256.36236572
0.71446997 -16.04226303 256.33258057
0.72738165 -16.04599190 256.33508301
0.71096200 -16.02996063 256.33694458
0.71934003 -16.04122925 256.34399414
0.72709250 -16.03972244 256.34963989
0.71310198 -16.03121185 256.34896851
0.72825003 -16.03690910 256.35452271
0.71631998 -16.02764511 256.36172485
0.72862166 -16.03390503 256.36361694
0.71985000 -16.02543068 256.37307739
0.72794569 -16.02809525 256.37841797
0.71350998 -16.01461220 256.33477783
0.72557998 -16.01072502 256.33007813
0.71757001 -16.00659943 256.33779907
0.72796398 -16.00429535 256.33773804
0.71240145 -16.01568222 256.34939575
0.71871001 -16.00223923 256.35110474
0.72689831 -15.99995518 256.35000610
0.71384495 -16.01591873 256.36413574
0.71666998 -16.00188255 256.36355591
0.72672498 -15.99578762 256.36297607
0.71513748 -16.01479912 256.37960815
0.71619999 -15.99973583 256.37933350
0.73178333 -15.99238968 256.36694336
0.72021002 -15.99166965 256.37945557
0.72863430 -15.98753452 256.37832642
0.73082000 -16.02701950 256.39392090
0.71657997 -16.01280785 256.39419556
0.72811502 -16.01727104 256.39474487
0.71455997 -16.00027275 256.39578247
0.72848499 -16.01081276 256.40487671
0.71290570 -16.00249100 256.40820313
0.72630000 -16.00572968 256.41162109
0.71763003 -15.98870754 256.39315796
0.72298998 -15.98294353 256.39144897
0.72927999 -15.97712231 256.39636230
0.71323252 -15.98696995 256.40731812
0.71691000 -15.97759438 256.40802002
0.72652000 -15.97030926 256.40695190
0.71438748 -15.99932480 256.42175293
0.72762001 -16.00457764 256.42156982
0.72394502 -15.99799538 256.43200684
0.71134597 -15.98691845 256.42047119
0.71706003 -15.97395992 256.42211914
0.72336000 -15.96687698 256.42416382
0.71615833 -15.98603153 256.43594360
0.72808999 -15.98946571 256.43948364
0.71677500 -15.97408485 256.43688965
0.73259002 -15.96294975 256.41424561
0.72990668 -15.96228981 256.42147827
0.72042000 -15.96399975 256.44046021
0.72690570 -15.95766926 256.43487549
0.71910000 -15.94767475 256.44250488
0.72873998 -15.94611454 256.43896484
0.73649001 -16.07135963 256.24014282
0.73549998 -16.07012939 256.24725342
0.73637003 -16.06351280 256.24798584
0.73804998 -16.06015396 256.25991821
0.73628002 -16.05126953 256.25500488
0.73746502 -16.04834366 256.26431274
0.73558998 -16.05381966 256.27392578
0.73615998 -16.05261993 256.28970337
0.73938715 -16.04754066 256.27642822
0.74021000 -16.03672981 256.28237915
0.74212331 -16.04328346 256.29101563
0.74043000 -16.03051376 256.29244995
0.73909998 -16.04582024 256.30441284
0.74356002 -16.02926445 256.30639648
0.73852003 -16.04338074 256.31900024
0.74546331 -16.03173256 256.32089233
0.74016500 -16.02116966 256.30822754
0.74172598 -16.01739120 256.32046509
0.73931003 -16.04073906 256.33215332
0.74501002 -16.03229713 256.33615112
0.74097997 -16.04552269 256.34997559
0.73987997 -16.03599930 256.35006714
0.74023998 -16.04162025 256.36169434
0.73917997 -16.03451920 256.36523438
0.73875499 -16.02564049 256.38043213
0.74425375 -16.01428604 256.33386230
0.74823999 -16.00980949 256.34664917
0.75033998 -16.01829147 256.34906006
0.74310666 -16.00333977 256.34896851
0.75134504 -16.01374435 256.36135864
0.74185669 -15.99671650 256.36013794
0.75084251 -16.00367737 256.36511230
0.75265002 -16.01366806 256.37542725
0.74566001 -15.99503040 256.37130737
0.75274003 -15.99909019 256.37753296
0.74048001 -15.99289989 256.36801147
0.74232668 -15.98828030 256.37774658
0.75111997 -15.99260044 256.37802124
0.74208665 -16.02066040 256.39389038
0.75441998 -16.00926971 256.38610840
0.75681800 -16.00222206 256.39358521
0.74026197 -16.01598167 256.40869141
0.75992000 -15.99958038 256.40740967
0.74512255 -15.98245239 256.38943481
0.75522250 -15.98782253 256.39498901
0.74224502 -15.97744465 256.39584351
0.75402999 -15.97931957 256.39797974
0.75941503 -15.98654747 256.40838623
0.74404144 -15.96973038 256.40670776
0.75384998 -15.97330475 256.40982056
0.74466336 -16.01365280 256.42062378
0.73843998 -16.00246048 256.42431641
0.75927001 -15.99996281 256.42095947
0.74673998 -16.00912094 256.43060303
0.74158430 -16.00144196 256.43585205
0.75925499 -15.98806953 256.42483521
0.75565428 -15.97148418 256.42156982
0.74041998 -15.99085999 256.43969727
0.75780249 -15.98739529 256.43811035
0.75835401 -15.97218227 256.43511963
0.73925000 -15.96393967 256.41079712
0.74103999 -15.96230221 256.42181396
0.74967998 -15.96037006 256.42630005
0.74338502 -15.95548248 256.43218994
0.75520003 -15.95772648 256.43804932
0.74165666 -15.94534016 256.44012451
0.75015998 -15.94985008 256.44049072
0.67378497 -16.25762558 256.55184937
0.73302501 -16.25931549 256.51104736
0.71365666 -16.25958061 256.52853394
0.72888666 -16.26303101 256.52340698
0.68399000 -16.25638962 256.54272461
0.69883335 -16.25949097 256.53808594
0.68248397 -16.25866890 256.55386353
0.69894332 -16.25955963 256.54669189
0.71409601 -16.26022339 256.53851318
0.72865403 -16.26405144 256.53710938
0.73046333 -16.25934982 256.55184937
0.67416000 -16.25214005 256.54528809
0.65877998 -16.25001144 256.55682373
0.66743398 -16.24849701 256.55044556
0.65767252 -16.23923302 256.55715942
0.67202663 -16.23670006 256.55249023
0.70585001 -16.24554062 256.51525879
0.70187002 -16.24736977 256.52923584
0.71139997 -16.24721909 256.51559448
0.73175198 -16.24702454 256.50790405
0.73109001 -16.24041939 256.51434326
0.71007001 -16.24742317 256.52191162
0.72460711 -16.24680138 256.51934814
0.71161997 -16.24079132 256.52600098
0.72651666 -16.23983955 256.52413940
0.68318999 -16.24831390 256.53936768
0.69840497 -16.24493217 256.53640747
0.68809998 -16.23838043 256.54162598
0.70393002 -16.23937035 256.53311157
0.68726003 -16.24829865 256.55902100
0.69660503 -16.24845505 256.55398560
0.68205798 -16.23746872 256.55108643
0.69470000 -16.23897552 256.54730225
0.71403199 -16.24543190 256.53887939
0.72306001 -16.25066948 256.54296875
0.71173000 -16.24110031 256.53826904
0.72947431 -16.23724556 256.53713989
0.70923996 -16.24849510 256.54718018
0.72612375 -16.24850655 256.55352783
0.72912002 -16.23334885 256.55404663
0.73499000 -16.22644043 256.55557251
0.61650997 -16.24415970 256.58743286
0.58638000 -16.24778938 256.61355591
0.58762997 -16.23834991 256.61480713
0.59958500 -16.24399948 256.60095215
0.61209500 -16.24990273 256.59588623
0.60115999 -16.23699951 256.60317993
0.61132556 -16.23691750 256.59762573
0.59807569 -16.25276184 256.61123657
0.61405003 -16.25309944 256.61013794
0.59621167 -16.23361969 256.61145020
0.61075830 -16.23360062 256.61062622
0.55595601 -16.24917603 256.64120483
0.55508602 -16.23585510 256.64181519
0.52472335 -16.24760056 256.67028809
0.52714401 -16.23559570 256.67120361
0.54003501 -16.24683571 256.65502930
0.55413496 -16.25276184 256.65661621
0.53957248 -16.23558807 256.65719604
0.55300397 -16.23243332 256.65170288
0.53927499 -16.25309944 256.66790771
0.55219251 -16.24755859 256.66934204
0.53792572 -16.23274803 256.66909790
0.55171251 -16.23501968 256.66690063
0.57051998 -16.24827766 256.62796021
0.58171499 -16.25032616 256.62344360
0.56972998 -16.23812866 256.62890625
0.58122599 -16.23345375 256.62463379
0.56663001 -16.24969864 256.63720703
0.58072001 -16.24996948 256.64022827
0.56669778 -16.23230362 256.63998413
0.58231503 -16.23418045 256.63803101
0.59702998 -16.25078964 256.62493896
0.61567003 -16.24235916 256.62036133
0.59591335 -16.23400116 256.62619019
0.60643500 -16.23624992 256.62255859
0.59445500 -16.24555588 256.63397217
0.59276003 -16.23876953 256.63632202
0.56522000 -16.25096321 256.65106201
0.57879001 -16.24353027 256.64840698
0.56694001 -16.23568535 256.65292358
0.56224000 -16.24361992 256.66397095
0.64552999 -16.25609016 256.58056641
0.65549999 -16.25718498 256.57092285
0.66883999 -16.25802612 256.56359863
0.67769998 -16.25617981 256.56692505
0.73100001 -16.25580025 256.57049561
0.64205170 -16.24692154 256.56933594
0.64213997 -16.23799133 256.57135010
0.62470835 -16.24740219 256.58331299
0.63869601 -16.25422668 256.58111572
0.62897003 -16.23555565 256.58383179
0.63924330 -16.23494339 256.58132935
0.65539336 -16.25406647 256.56335449
0.66984999 -16.24956894 256.57260132
0.65542626 -16.23633575 256.56808472
0.66744375 -16.23649406 256.56472778
0.65609431 -16.24890709 256.58193970
0.66684669 -16.24860001 256.57635498
0.65039998 -16.23652077 256.57836914
0.62804663 -16.25153542 256.59924316
0.64161330 -16.24827957 256.59552002
0.62559003 -16.23482704 256.59500122
0.64060330 -16.23914719 256.59194946
0.62406504 -16.24695015 256.60876465
0.62328500 -16.23859024 256.60952759
0.65140998 -16.24511909 256.58999634
0.68201667 -16.24746895 256.56594849
0.67853999 -16.24018097 256.56408691
0.72609001 -16.25027084 256.56976318
0.72740400 -16.23304749 256.56768799
0.71855998 -16.24135017 256.58776855
0.72634858 -16.25005150 256.58102417
0.71917999 -16.23476028 256.58541870
0.72201002 -16.22845078 256.58221436
0.72792000 -16.22492027 256.57281494
0.72938573 -16.22374153 256.58172607
0.71743500 -16.24326515 256.59722900
0.72633499 -16.25051880 256.59738159
0.71577603 -16.23388100 256.59887695
0.71652746 -16.24489594 256.61053467
0.72902000 -16.24908066 256.60986328
0.71252197 -16.23173141 256.61093140
0.71777999 -16.22294044 256.59735107
0.72823834 -16.22163200 256.59643555
0.71615601 -16.21989250 256.61218262
0.72824401 -16.21877289 256.61090088
0.70411003 -16.23223686 256.64196777
0.71469998 -16.24398232 256.62500000
0.72705501 -16.24666405 256.62460327
0.70792001 -16.23336983 256.62533569
0.73319000 -16.24090004 256.62866211
0.71478337 -16.24337959 256.64105225
0.72524250 -16.24381638 256.63793945
0.70718998 -16.23509026 256.63626099
0.73170000 -16.23656082 256.64120483
0.70603001 -16.22603035 256.62854004
0.70511496 -16.22051048 256.63885498
0.71498197 -16.21702385 256.62548828
0.72956753 -16.21949768 256.62396240
0.71348715 -16.21521187 256.63909912
0.72909164 -16.21755981 256.63916016
0.72233999 -16.21195984 256.63327026
0.70059669 -16.23269463 256.65521240
0.70046717 -16.23476219 256.67156982
0.71350336 -16.24202919 256.65579224
0.72156000 -16.24280930 256.64813232
0.70724499 -16.24060059 256.65451050
0.72767287 -16.23465347 256.65509033
0.71452665 -16.23974991 256.67102051
0.72530746 -16.23204994 256.66741943
0.70101500 -16.22018814 256.65429688
0.69687569 -16.21925735 256.66970825
0.70229501 -16.21051025 256.67370605
0.71458197 -16.21332741 256.65649414
0.72744668 -16.21864510 256.65093994
0.71253753 -16.21023560 256.65365601
0.71606749 -16.21293449 256.66961670
0.72708601 -16.22051430 256.67086792
0.70922667 -16.20956612 256.66784668
0.74804497 -16.25980949 256.45043945
0.75764251 -16.26668739 256.45153809
0.74686998 -16.26005936 256.46365356
0.75715667 -16.26741982 256.46765137
0.77291000 -16.26533508 256.44955444
0.77897000 -16.25897026 256.45419312
0.77088499 -16.26476288 256.46527100
0.77917999 -16.25613022 256.46307373
0.74516749 -16.26045609 256.47946167
0.75541002 -16.26746750 256.48016357
0.74450499 -16.26335907 256.49438477
0.75555748 -16.26859283 256.49664307
0.76951599 -16.26306343 256.48159790
0.76868999 -16.26315880 256.49566650
0.74637401 -16.24726868 256.44949341
0.74809003 -16.23996544 256.45379639
0.75737000 -16.23466873 256.45269775
0.74351799 -16.24895477 256.46478271
0.74610996 -16.23896408 256.46563721
0.75508332 -16.23455048 256.46533203
0.77771002 -16.24138069 256.45642090
0.78161001 -16.24813271 256.45266724
0.77258199 -16.23394585 256.44897461
0.78031999 -16.24006081 256.45123291
0.77803999 -16.24592972 256.47113037
0.77900004 -16.25095558 256.46682739
0.76982331 -16.23550987 256.46481323
0.74177003 -16.24935722 256.47946167
0.74506664 -16.23792076 256.48132324
0.75533664 -16.23424911 256.48001099
0.73851120 -16.24870491 256.49508667
0.74545997 -16.23668289 256.49533081
0.75655496 -16.23443604 256.49584961
0.77605999 -16.25156975 256.48236084
0.77198797 -16.23835945 256.47836304
0.77516800 -16.24938583 256.49453735
0.76962501 -16.23797417 256.49386597
0.75252998 -16.27072906 256.51620483
0.74354798 -16.26762199 256.50860596
0.75849748 -16.26845741 256.51022339
0.74385750 -16.27139473 256.52288818
0.75370997 -16.27111053 256.52297974
0.76247001 -16.26580048 256.52600098
0.76777500 -16.26064301 256.50814819
0.76543498 -16.26045609 256.52276611
0.74423337 -16.27186394 256.53573608
0.75533998 -16.27257919 256.53936768
0.73973000 -16.26836014 256.53982544
0.76176333 -16.26804924 256.53668213
0.74752003 -16.27091026 256.55325317
0.75648749 -16.27542114 256.54946899
0.74057400 -16.26600266 256.55218506
0.76618505 -16.26078415 256.53665161
0.77112144 -16.27557755 256.55407715
0.77065712 -16.26254654 256.55017090
0.74157429 -16.23646927 256.51031494
0.75512999 -16.23469734 256.50802612
0.74236602 -16.23391724 256.52505493
0.75845003 -16.23546219 256.52200317
0.77102500 -16.24960709 256.50952148
0.76666498 -16.23910141 256.51123047
0.76881498 -16.24871445 256.52423096
0.76442999 -16.23966980 256.52413940
0.74448752 -16.23299408 256.53936768
0.75711799 -16.23503113 256.53646851
0.76191002 -16.24827003 256.55554199
0.74290001 -16.23073006 256.55450439
0.75762665 -16.23591042 256.55252075
0.76771998 -16.24729156 256.53894043
0.76613003 -16.25012970 256.55169678
0.74057001 -16.22615051 256.55084229
0.77160501 -16.28716469 256.57055664
0.77938998 -16.28933907 256.57272339
0.78209001 -16.29957008 256.58639526
0.77289802 -16.29095078 256.58200073
0.78571248 -16.29335976 256.58245850
0.75908166 -16.27795982 256.56488037
0.74355143 -16.26006508 256.56652832
0.75690669 -16.26349068 256.56552124
0.76410002 -16.27972031 256.58093262
0.77176666 -16.27857018 256.56567383
0.78039503 -16.27218056 256.57116699
0.77262801 -16.26634407 256.56454468
0.77289337 -16.27749062 256.58102417
0.78784144 -16.27808762 256.58139038
0.78651834 -16.30314445 256.59631348
0.77548999 -16.29509926 256.59490967
0.79303002 -16.29821968 256.59271240
0.78884000 -16.30721092 256.60781860
0.78962666 -16.28162003 256.59606934
0.79509997 -16.28347015 256.58544922
0.79826498 -16.30463982 256.60003662
0.79751498 -16.29037094 256.59643555
0.79844499 -16.30759430 256.60745239
0.79903001 -16.29363060 256.60549927
0.75658667 -16.24765968 256.56759644
0.74277002 -16.22853279 256.56927490
0.75463748 -16.23486328 256.56530762
0.74335003 -16.25161552 256.58276367
0.75229001 -16.24453354 256.57855225
0.74857002 -16.22946930 256.58285522
0.75259000 -16.23334122 256.57925415
0.73936999 -16.22513008 256.56420898
0.74155003 -16.22399139 256.58004761
0.74026430 -16.24814224 256.59594727
0.74766248 -16.23154068 256.59680176
0.74048001 -16.24437332 256.61062622
0.74519998 -16.23521042 256.61053467
0.74097604 -16.22377205 256.59381104
0.74081004 -16.22518921 256.60864258
0.73809499 -16.24261475 256.62091064
0.73994499 -16.23218536 256.62539673
0.73749000 -16.22927856 256.63729858
0.73287499 -15.98184967 256.44689941
0.71607250 -15.97241211 256.44793701
0.72579837 -15.97370720 256.45458984
0.71801996 -15.97073936 256.46148682
0.72959399 -15.96903229 256.46582031
0.69960332 -15.98631001 256.52746582
0.70175201 -15.97413635 256.52416992
0.71070999 -15.96568012 256.52575684
0.68708003 -16.00048065 256.53814697
0.69385254 -15.99845982 256.53970337
0.68731999 -16.00914955 256.54571533
0.69130999 -15.98923969 256.53140259
0.69901001 -15.98666382 256.53582764
0.61369997 -15.85689640 256.48437500
0.61238569 -15.85602570 256.49264526
0.67359000 -15.90769005 256.45285034
0.67394000 -15.91022968 256.46353149
0.70257998 -15.94008446 256.45462036
0.69959497 -15.93724060 256.46240234
0.71455109 -15.95903301 256.45037842
0.71254623 -15.94271755 256.45004272
0.73015797 -15.93887234 256.44680786
0.72412127 -15.95718861 256.46643066
0.70765001 -15.94501972 256.46008301
0.72918802 -15.94134998 256.46588135
0.68928504 -15.92482471 256.45214844
0.69818252 -15.93010521 256.45037842
0.68263000 -15.91594028 256.45043945
0.69792747 -15.91181469 256.45230103
0.68818998 -15.92644501 256.45956421
0.69581002 -15.93498039 256.46258545
0.67987502 -15.91631508 256.46038818
0.69900334 -15.91254044 256.46069336
0.71429622 -15.92795658 256.45010376
0.72606999 -15.93479061 256.45248413
0.70612001 -15.91882038 256.45306396
0.71664000 -15.92819977 256.46151733
0.72816002 -15.93566990 256.46322632
0.70785999 -15.92131042 256.46154785
0.72897857 -15.95809460 256.48089600
0.72797334 -15.94591999 256.48083496
0.73275495 -15.95236015 256.49639893
0.73065501 -15.94058228 256.49591064
0.73201251 -15.93445492 256.47985840
0.73268598 -15.92870426 256.49560547
0.64545500 -15.87965965 256.46618652
0.66888499 -15.89852715 256.45391846
0.66969001 -15.88871956 256.45645142
0.65741503 -15.89719009 256.46676636
0.66567999 -15.90392017 256.46502686
0.65642333 -15.88423538 256.46423340
0.67082602 -15.88453197 256.46414185
0.63678670 -15.87287998 256.47061157
0.64128500 -15.86189461 256.47097778
0.65578330 -15.87053013 256.46557617
0.66435999 -15.87567520 256.46752930
0.64910001 -15.86320019 256.46899414
0.64415002 -15.88049984 256.47402954
0.65308499 -15.88240433 256.47766113
0.62747502 -15.86795521 256.48013306
0.64227402 -15.87186623 256.48278809
0.62940800 -15.85504818 256.47967529
0.64134002 -15.85527802 256.47967529
0.62696999 -15.86509037 256.48901367
0.62812501 -15.85582542 256.49249268
0.64146501 -15.85480976 256.48925781
0.65504003 -15.86811256 256.47863770
0.66283000 -15.87411976 256.47314453
0.65157247 -15.85699463 256.48062134
0.68408751 -15.89910507 256.45190430
0.68247998 -15.89544487 256.46185303
0.70469499 -15.96299553 256.51995850
0.73181200 -15.94207954 256.50967407
0.71348667 -15.95555019 256.52276611
0.71792996 -15.94362450 256.52432251
0.72650713 -15.94155407 256.52377319
0.73001802 -15.92764187 256.51058960
0.72946799 -15.92989254 256.52252197
0.73416996 -15.91697025 256.52304077
0.73310000 -15.94001007 256.53271484
0.72960746 -15.92855263 256.53720093
0.73449504 -15.91634560 256.53918457
0.74466002 -15.99736500 256.44619751
0.74355751 -15.98769760 256.44732666
0.75618666 -15.98653221 256.45349121
0.74158502 -15.97896004 256.45291138
0.75574750 -15.97429466 256.45336914
0.75631666 -15.98432350 256.46188354
0.74331999 -15.97230625 256.46420288
0.75647908 -15.97360897 256.46508789
0.74318999 -15.96586037 256.47592163
0.75576669 -15.96821308 256.47839355
0.75896198 -15.95980644 256.45239258
0.74278599 -15.93893051 256.45089722
0.75331998 -15.94546986 256.45223999
0.75823998 -15.95843506 256.46661377
0.74381667 -15.93787289 256.46450806
0.75757253 -15.94341087 256.46514893
0.74039668 -15.93292999 256.46942139
0.75288999 -15.93317986 256.47290039
0.74136668 -15.96098042 256.48376465
0.75876999 -15.95957470 256.47930908
0.76106334 -15.94067383 256.47796631
0.74305004 -15.95528793 256.49322510
0.75814998 -15.95692825 256.49151611
0.74177003 -15.95018005 256.50155640
0.76262999 -15.95009041 256.50064087
0.76467001 -15.94217014 256.48678589
0.76485997 -15.93870354 256.49520874
0.74311143 -15.92840576 256.47998047
0.75782669 -15.93036461 256.48272705
0.73959506 -15.92342949 256.49078369
0.76185334 -15.92773056 256.49209595
0.74411333 -15.91794968 256.49807739
0.75427502 -15.91980553 256.49554443
0.76574999 -15.92844009 256.50091553
0.74833000 -15.95230007 256.50247192
0.75430000 -15.95513535 256.50555420
0.74335599 -15.94826603 256.50979614
0.76034570 -15.94489574 256.51034546
0.74258143 -15.94144249 256.52536011
0.75459999 -15.94213963 256.52233887
0.74204749 -15.91345406 256.50927734
0.75915712 -15.91455460 256.51004028
0.76136994 -15.93574524 256.52349854
0.73857498 -15.91091537 256.52514648
0.75622666 -15.90802002 256.51965332
0.76661998 -15.92681503 256.51095581
0.76578748 -15.92790699 256.52465820
0.76789200 -15.91577148 256.52392578
0.74123669 -15.93854332 256.53839111
0.75475001 -15.93700981 256.53460693
0.74462599 -15.93187809 256.53826904
0.75910330 -15.93156528 256.53875732
0.73827499 -15.90728569 256.53466797
0.74123168 -15.92615986 256.55120850
0.75760502 -15.92784977 256.55328369
0.73781002 -15.91525459 256.55368042
0.76691997 -15.92201996 256.53643799
0.76973999 -15.91353798 256.53918457
0.76539004 -15.92302513 256.55236816
0.77151000 -15.91440201 256.55099487
0.74400002 -15.90434742 256.52548218
0.75590664 -15.90409946 256.52575684
0.74397004 -15.90046501 256.53915405
0.75751168 -15.89863968 256.53787231
0.74108499 -15.89847469 256.55197144
0.75623667 -15.89472008 256.54760742
0.74671000 -15.89146996 256.55236816
0.75557250 -15.89002037 256.55432129
0.76779002 -15.90261459 256.53982544
0.77163500 -15.89919949 256.55389404
0.76446003 -15.89064026 256.55691528
0.75680000 -15.92531013 256.56723022
0.74251997 -15.91436386 256.56649780
0.75101501 -15.91915035 256.56854248
0.74660999 -15.91024971 256.58093262
0.75595665 -15.91676998 256.58172607
0.76968718 -15.91488552 256.56640625
0.76968753 -15.91180801 256.58212280
0.74842000 -15.90826035 256.59356689
0.75621164 -15.91029453 256.59780884
0.77020001 -15.90865040 256.59494019
0.74006498 -15.89912510 256.56622314
0.74447250 -15.88927460 256.56661987
0.75709122 -15.88567924 256.56600952
0.74154800 -15.90076447 256.58227539
0.74630833 -15.88521957 256.58105469
0.75827003 -15.88027477 256.57919312
0.77473748 -15.89913464 256.56695557
0.76873600 -15.88774014 256.56945801
0.77547199 -15.90096188 256.58081055
0.77312666 -15.88385010 256.58193970
0.77899998 -15.88566017 256.58609009
0.75886333 -15.87533379 256.58651733
0.76827002 -15.87576008 256.58895874
0.74490833 -15.90083790 256.59542847
0.74536669 -15.88478470 256.59747314
0.74650002 -15.89507008 256.61090088
0.75610858 -15.90155888 256.61224365
0.74633503 -15.88532257 256.61148071
0.77462286 -15.89985180 256.59854126
0.77802503 -15.89048576 256.59469604
0.78284001 -15.88335037 256.59664917
0.77113998 -15.90061760 256.61181641
0.78112000 -15.88584995 256.61184692
0.74908000 -15.87722969 256.59671021
0.75712800 -15.87384605 256.59613037
0.74840498 -15.87625504 256.61383057
0.75675601 -15.86806583 256.60958862
0.77209198 -15.87413025 256.59762573
0.78355998 -15.87450981 256.59445190
0.77131164 -15.86983013 256.60974121
0.77947998 -15.87382984 256.61593628
0.74791002 -15.89258003 256.62088013
0.75763428 -15.89691257 256.62585449
0.74776751 -15.88521004 256.62487793
0.75982332 -15.89445972 256.63699341
0.74935001 -15.87936020 256.63500977
0.75451398 -15.88696003 256.64151001
0.77004832 -15.89688015 256.62438965
0.77715999 -15.88820934 256.62591553
0.77954000 -15.88226986 256.62451172
0.77005500 -15.89484501 256.63562012
0.77344000 -15.88891220 256.64053345
0.78118998 -15.88183022 256.63900757
0.74890000 -15.87574959 256.62756348
0.75222999 -15.86798477 256.62384033
0.76029330 -15.86069679 256.62652588
0.75110799 -15.86997414 256.64062500
0.75774598 -15.85861206 256.63934326
0.77664500 -15.86477470 256.62402344
0.78152752 -15.87327480 256.62548828
0.77003199 -15.86154556 256.62692261
0.78310502 -15.87028885 256.64031982
