112.97560883 119.59343719 168.27856445
112.98532104 119.59853363 168.27963257
112.97651672 119.60883331 168.28088379
112.97028351 119.61525726 168.27630615
112.99292755 119.59052277 168.28456116
113.00231934 119.60098267 168.28309631
113.01834106 119.59812927 168.28251648
112.95394135 119.64308167 168.28132629
112.93650055 119.66983795 168.25267029
112.95552063 119.65724945 168.28140259
112.94699860 119.66947937 168.28155518
112.96594238 119.64221191 168.28421021
112.97055054 119.62326813 168.28346252
112.98168182 119.62071228 168.28814697
112.96704102 119.63234711 168.28590393
112.96344757 119.65270996 168.28724670
112.94503021 119.67768860 168.28720093
112.95693970 119.67118073 168.28744507
112.95082092 119.68257904 168.29614258
113.02185822 119.62860107 168.28846741
113.02754211 119.63578033 168.29585266
113.03678131 119.63810730 168.29924011
113.03160095 119.64730072 168.30070496
113.05117798 119.64147186 168.30966187
113.04621124 119.65338135 168.30966187
113.18956757 119.55339050 168.17712402
113.09329224 119.61795044 168.18495178
113.11364746 119.60211945 168.17512512
113.10201263 119.59317017 168.18487549
113.10543823 119.60717010 168.17236328
113.12210083 119.60617828 168.16987610
113.10426331 119.61667633 168.17558289
113.10276031 119.60341644 168.18457031
113.11956787 119.61553192 168.17413330
113.17433929 119.56813812 168.16069031
113.18334198 119.56333160 168.16606140
113.16629028 119.57836151 168.16035461
113.18074036 119.57717896 168.16569519
113.15042114 119.60144806 168.15968323
113.15769196 119.59470367 168.16116333
113.13720703 119.61724091 168.16049194
113.13078308 119.61103821 168.16853333
113.15811920 119.61566162 168.16014099
113.14739227 119.61418915 168.16319275
113.12316132 119.61759186 168.16101074
113.16838074 119.59111023 168.16203308
113.16838074 119.60709381 168.16589355
113.18329620 119.61801910 168.16873169
113.18701172 119.59841156 168.16984558
113.12023926 119.62454224 168.16862488
113.15760803 119.62271881 168.15089417
113.15840149 119.63246155 168.14738464
113.15615082 119.64746094 168.15144348
113.18105316 119.64083099 168.13551331
113.19004822 119.64253235 168.13014221
113.16845703 119.63401031 168.14407349
113.16400146 119.64418793 168.13937378
113.17375183 119.65026093 168.14222717
113.16558075 119.64418793 168.14932251
113.17804718 119.65306091 168.12399292
113.19135284 119.67176819 168.12304688
113.18859100 119.66146851 168.12265015
113.18850708 119.65428925 168.13006592
113.17788696 119.65863037 168.13290405
113.18538666 119.66513824 168.13470459
113.14755249 119.62162018 168.15342712
113.14237213 119.63191223 168.15440369
113.15232086 119.62255859 168.16633606
113.15740967 119.63310242 168.16519165
113.13378143 119.62895203 168.16191101
113.16657257 119.62686157 168.16917419
113.22402191 119.67868042 168.10017395
113.19809723 119.65783691 168.12019348
113.21257782 119.66589355 168.11047363
113.21775055 119.66104126 168.11967468
113.20516205 119.67323303 168.11015320
113.21376038 119.67646790 168.10522461
113.20282745 119.66928101 168.11981201
113.24201965 119.67793274 168.09959412
113.22457123 119.67038727 168.11155701
113.23677063 119.60623169 168.18141174
113.20807648 119.65615082 168.12153625
113.19821167 119.65049744 168.12919617
113.19711304 119.62225342 168.16661072
113.20160675 119.61826324 168.17485046
113.07939148 119.53794861 168.21199036
113.08657074 119.54502106 168.21577454
113.18779755 119.53594208 168.19624329
113.18830872 119.54698944 168.18768311
113.19857025 119.54396057 168.18989563
113.06494904 119.55966187 168.20938110
113.07019806 119.58313751 168.19900513
113.06542206 119.57038879 168.20982361
113.09747314 119.57749176 168.19032288
113.10733032 119.58267212 168.18530273
113.08480072 119.58802795 168.19017029
113.09139252 119.60630035 168.18559265
113.07707214 119.59806061 168.19841003
113.08763885 119.59738159 168.19572449
113.07971191 119.60993195 168.20382690
113.11144257 119.61245728 168.18571472
113.09221649 119.55480194 168.22102356
113.09210205 119.56349182 168.22915649
113.08503723 119.57359314 168.23263550
113.08492279 119.58338165 168.19923401
113.08760071 119.62895203 168.19241333
113.06684113 119.64572144 168.19885254
113.07631683 119.64289093 168.19415283
113.10189056 119.62464905 168.18515015
113.06668854 119.65666199 168.20277405
113.24530029 119.60807800 168.18823242
113.22624207 119.62422180 168.18507385
113.23519135 119.62458038 168.19131470
113.23989105 119.63349152 168.19380188
113.24082947 119.62892151 168.20486450
113.25057983 119.63096619 168.20385742
113.24703217 119.63498688 168.21530151
113.24786377 119.63317108 168.23135376
112.90801239 119.90325928 168.15054321
112.89273071 119.93869019 168.13577271
112.89739227 119.92343140 168.14297485
112.90505219 119.91609192 168.14956665
112.91322327 119.92195892 168.14973450
112.91712189 119.88037109 168.15986633
112.90927124 119.88475037 168.15449524
112.92636108 119.88329315 168.16357422
112.91898346 119.89154053 168.16383362
112.93235779 119.68711853 168.23893738
112.93203735 119.68768311 168.25494385
112.89289093 119.73774719 168.31213379
112.93274689 119.72663116 168.31207275
112.90493011 119.74449921 168.31254578
112.93377686 119.73664856 168.31202698
112.92198181 119.73928833 168.31021118
112.98232269 119.68724060 168.20756531
112.97509003 119.68833923 168.21612549
112.99057007 119.69415283 168.20451355
112.99250031 119.74198151 168.20054626
112.94699860 119.68634033 168.22532654
112.94422913 119.69058990 168.23779297
113.00370026 119.69323730 168.20843506
113.02224731 119.69241333 168.20903015
113.01277924 119.69979095 168.20965576
113.02970886 119.70358276 168.20631409
113.03704834 119.68874359 168.20611572
113.02194214 119.70787811 168.21124268
113.03826904 119.71103668 168.20642090
113.01313782 119.71672058 168.21147156
113.02162170 119.71984100 168.20642090
113.04495239 119.71916199 168.20823669
113.04656219 119.73001862 168.20697021
112.98899078 119.75405121 168.20077515
112.97741699 119.76901245 168.19955444
112.96614075 119.78941345 168.19020081
112.96511078 119.78294373 168.19940186
112.95339203 119.80030060 168.18716431
112.96396637 119.80155945 168.19125366
112.95059204 119.69281006 168.29762268
112.94084167 119.70536041 168.30151367
112.95378113 119.70989227 168.30780029
112.93843079 119.71317291 168.30757141
112.95188904 119.72267914 168.31146240
112.95008087 119.82572174 168.18728638
112.95279694 119.81459045 168.19090271
113.23893738 119.69273376 168.08610535
113.25311279 119.69431305 168.07852173
113.25524139 119.70378113 168.08207703
113.24842072 119.68795013 168.08691406
113.23909760 119.68456268 168.09213257
113.24607849 119.69431305 168.09509277
113.23065186 119.68527222 168.10374451
113.27935028 119.69798279 168.07118225
113.26908875 119.70433044 168.07098389
113.28858185 119.70677185 168.06001282
113.26444244 119.69129944 168.07951355
113.27871704 119.70725250 168.06503296
113.27520752 119.69220734 168.08012390
113.29920197 119.71482086 168.05966187
113.31842041 119.71221924 168.06025696
113.31762695 119.92440796 168.10264587
113.31450653 119.91751099 168.11026001
113.07478333 119.76635742 168.20086670
113.08661652 119.77639008 168.20152283
113.09008789 119.78691864 168.20013428
113.09446716 119.80074310 168.20120239
113.09976196 119.79028320 168.20370483
113.10327148 119.80828094 168.20239258
113.20343018 119.93959808 168.19975281
113.41024780 119.42765045 168.04722595
113.41976166 119.42494202 168.04963684
113.41825867 119.44664001 168.05523682
113.41838074 119.43504333 168.05110168
113.70739746 119.47644043 167.80497742
113.69418335 119.48668671 167.81428528
113.70735931 119.48558807 167.81355286
113.67307281 119.51708221 167.81732178
113.68740082 119.50102234 167.81752014
113.70305634 119.49414825 167.81846619
113.69383240 119.51004791 167.82208252
113.68103790 119.50953674 167.82707214
113.67169189 119.52793121 167.82153320
113.67169189 119.54067230 167.82229614
113.68135071 119.55152893 167.81262207
113.68092346 119.52259827 167.82147217
113.69030762 119.52213287 167.82612610
113.67713165 119.55181122 167.82217407
113.67791748 119.53117371 167.82867432
113.68257904 119.54009247 167.82739258
113.67137146 119.51306152 167.83528137
113.66545105 119.52777100 167.83546448
113.66899872 119.54126740 167.83702087
113.65898132 119.52249146 167.86120605
113.66297150 119.52307129 167.84695435
113.66832733 119.53227234 167.84834290
113.67389679 119.53372955 167.86259460
113.65940857 119.54396057 167.86250305
113.66670990 119.55319214 167.85896301
113.67614746 119.52867889 167.83856201
113.69291687 119.53346252 167.84483337
113.69030762 119.54328156 167.84565735
113.68144226 119.54982758 167.85351563
113.61025238 119.48500061 167.89320374
113.61280823 119.47496796 167.89273071
113.62239838 119.47746277 167.89416504
113.64228821 119.48602295 167.88563538
113.63246155 119.47415161 167.89230347
113.62866974 119.48625183 167.89120483
113.59024048 119.43621826 167.91041565
113.59102631 119.44564819 167.90245056
113.59133911 119.45578766 167.90098572
113.61016083 119.45165253 167.90112305
113.59999084 119.44107056 167.90797424
113.59832764 119.45658112 167.90837097
113.61296844 119.43609619 167.90669250
113.60514832 119.46234131 167.89775085
113.59954834 119.47686005 167.90121460
113.61544800 119.46053314 167.90158081
113.62941742 119.46466827 167.89770508
113.63033295 119.51653290 167.87747192
113.64244080 119.51653290 167.87872314
113.62416840 119.50373840 167.88638306
113.61766052 119.49536896 167.88824463
113.58097076 119.42584229 167.91606140
113.63565826 119.49617004 167.88887024
113.63416290 119.50714111 167.88670349
113.64134216 119.54241180 167.87016296
113.64212799 119.52718353 167.87292480
113.65151978 119.49478149 167.87727356
113.66004181 119.50717163 167.87054443
113.66261292 119.49852753 167.88116455
113.64801025 119.50985718 167.88725281
113.65277863 119.53314209 167.86976624
113.65502930 119.52291870 167.87231445
113.66690826 119.52655029 167.86882019
113.66221619 119.53748322 167.87164307
113.72086334 119.43267059 167.80505371
113.65297699 119.54615784 167.86996460
113.71813202 119.44544983 167.80458069
113.72039032 119.45686340 167.80841064
113.72686005 119.42694092 167.81944275
113.71597290 119.46884918 167.80789185
113.68917084 119.56124115 167.81042480
113.69383240 119.56021118 167.80047607
113.68502045 119.57485199 167.81199646
113.69346619 119.57292175 167.80685425
113.70704651 119.58215332 167.81657410
113.70285797 119.58542633 167.82814026
113.69718170 119.59935760 167.80461121
113.70597839 119.60571289 167.80612183
113.70184326 119.61704254 167.81195068
113.68746948 119.59651184 167.82876587
113.68541718 119.61660004 167.81973267
113.68167114 119.60582733 167.82800293
113.69757080 119.60980988 167.82229614
113.70755768 119.60357666 167.82452393
113.66793823 119.58190918 167.84277344
113.65329742 119.55803680 167.86128235
113.65634155 119.56668091 167.85707092
113.67343140 119.56033325 167.84916687
113.67733002 119.55426025 167.83807373
113.68434906 119.55970001 167.84419250
113.69358826 119.56758881 167.84541321
113.68052673 119.58589935 167.83665466
113.68061066 119.57150269 167.84652710
113.69931030 119.57614899 167.84242249
113.67211914 119.59671021 167.83847046
113.67089844 119.61083984 167.83151245
113.69458008 119.59261322 167.83682251
113.70069122 119.60263062 167.83267212
113.66307831 119.57359314 167.85240173
113.67713165 119.58914185 167.85177612
113.70362091 119.62555695 167.80612183
113.70262146 119.63760376 167.80618286
113.70104218 119.64829254 167.80458069
113.69058990 119.62683105 167.82008362
113.70200348 119.62209320 167.82194519
113.69847870 119.63657379 167.81590271
113.72141266 119.59738159 167.80174255
113.71753693 119.59816742 167.81282043
113.71836853 119.60637665 167.80499268
113.71260834 119.61743164 167.80761719
113.71939850 119.59545135 167.82321167
113.72804260 119.59281158 167.82800293
113.73795319 119.59293365 167.82513428
113.72232056 119.60653687 167.81814575
113.71273041 119.61353302 167.81811523
113.71601105 119.60298920 167.83015442
113.74028015 119.60781097 167.82458496
113.75192261 119.58226776 167.84712219
113.76927948 119.57848358 167.84959412
113.76296234 119.58271027 167.85783386
113.74324036 119.60093689 167.83244324
113.75415802 119.59573364 167.83688354
113.76084137 119.58638000 167.84016418
113.76885223 119.59146118 167.85762024
113.77310181 119.57295227 167.85769653
113.73194122 119.60263062 167.82675171
113.72560120 119.62718201 167.80499268
113.71494293 119.63443756 167.80194092
113.77156830 119.58795166 167.90576172
113.77330017 119.57710266 167.86961365
113.78791046 119.57347107 167.87336731
113.78253174 119.57176971 167.88374329
113.77429199 119.58152008 167.88261414
113.77528381 119.57714081 167.89297485
113.77259064 119.58859253 167.89091492
113.78565216 119.56668091 167.90765381
113.78411102 119.57102203 167.89758301
113.78710938 119.56257629 167.91789246
113.77729034 119.57710266 167.90693665
113.77333832 119.57836151 167.91653442
113.78285217 119.57363129 167.92590332
113.56829071 119.87315369 167.92654419
113.57797241 119.89095306 167.90750122
113.56098938 119.88806152 167.92535400
113.57559204 119.88069153 167.91838074
113.56832886 119.88893127 167.91798401
113.57678223 119.89584351 167.91807556
113.34557343 119.70700836 168.05137634
113.35603333 119.71404266 168.04684448
113.34015656 119.73780060 168.03941345
113.34864807 119.74474335 168.03985596
113.32962036 119.72090149 168.05307007
113.33838654 119.72725677 168.05157471
113.32366180 119.73715973 168.04600525
113.33258057 119.73159027 168.04403687
113.33135986 119.74501038 168.04368591
113.34442139 119.73724365 168.04939270
113.35970306 119.74391174 168.04284668
113.35839081 119.73735809 168.05203247
113.36924744 119.74520874 168.04751587
113.33641052 119.75811005 168.04150391
113.36138916 119.75346375 168.03918457
113.37306976 119.75330353 168.03950500
113.38136292 119.76304626 168.03523254
113.37101746 119.76483154 168.03425598
113.37521362 119.77323151 168.03898621
113.38275146 119.78156281 168.03973389
113.40042114 119.78057098 168.02354431
113.40953827 119.79012299 168.02255249
113.41416168 119.79911804 168.02110291
113.34832764 119.75447845 168.03697205
113.43506622 119.79299927 168.02253723
113.41928101 119.78775024 168.02308655
113.43052673 119.80613708 168.01338196
113.44541168 119.80278778 168.01448059
113.42604065 119.79895782 168.02328491
113.39276123 119.76782227 168.03149414
113.40886688 119.77748871 168.02879333
113.39469910 119.75965118 168.04072571
113.40081787 119.76850128 168.03758240
113.42153168 119.77385712 168.03381348
113.39003754 119.77986145 168.03117371
113.40248108 119.79177094 168.03187561
113.41822052 119.80918121 168.02774048
113.45587158 119.80941772 168.00923157
113.46623993 119.81047821 168.01396179
113.42492676 119.81577301 168.02040100
113.44123077 119.81513977 168.00938416
113.44782257 119.89859772 168.02963257
113.43573761 119.90641022 168.02687073
113.41593170 119.92733002 168.03790283
113.40824127 119.93466949 168.04376221
113.42559814 119.91297150 168.02990723
113.41558075 119.93979645 168.04881287
113.44048309 119.91455078 168.03143311
113.43242645 119.92176056 168.04031372
113.42829132 119.93032837 168.04612732
113.48152161 119.84095001 167.98674011
113.49584198 119.84040070 167.98341370
113.49327850 119.85176086 167.97293091
113.50897980 119.85605621 167.96388245
113.48739624 119.85128021 167.98286438
113.51064301 119.86608124 167.96850586
113.49832916 119.85591125 167.98283386
113.51059723 119.85555267 167.97865295
113.49520874 119.86672211 167.99040222
113.54347229 119.84596252 167.95785522
113.54583740 119.87602997 167.93843079
113.52642059 119.86592102 167.94758606
113.51625061 119.86447144 167.95840454
113.53688049 119.86406708 167.95074463
113.55519104 119.87519836 167.93382263
113.52587128 119.86106873 167.95773315
113.54055023 119.87500000 167.94850159
113.52967072 119.87213135 167.95500183
113.57077789 119.87133026 167.93728638
113.55262756 119.86766052 167.94360352
113.56506348 119.87039185 167.95062256
113.54741669 119.86438751 167.95268250
113.53018188 119.84342957 167.96281433
113.55159760 119.87090302 167.95907593
113.51992035 119.85591125 167.96400452
113.54000092 119.84796906 167.96861267
113.52201080 119.87345886 167.96336365
113.53771210 119.86415100 167.96298218
113.52114105 119.86151123 167.97256470
113.53739166 119.87493134 167.96333313
113.52722168 119.87110138 167.97282410
113.50066376 119.86534119 167.98045349
113.51174164 119.86844635 167.97856140
113.50763702 119.87140656 167.98800659
113.55716705 119.84995270 167.96357727
113.56675720 119.88420105 167.93496704
113.55874634 119.88361359 167.94285583
113.57756805 119.89344025 167.92810059
113.57714081 119.89102173 167.93806458
113.54987335 119.88156128 167.94743347
113.46491241 119.81562042 168.00540161
113.46900177 119.83373260 167.99342346
113.45121002 119.82097626 168.00526428
113.46115112 119.82414246 168.00015259
113.48107910 119.82797241 167.99392700
113.47622681 119.87523651 168.02304077
113.49604034 119.87595367 167.99867249
113.48857880 119.87436676 168.00749207
113.48017120 119.87815857 168.01402283
113.47769165 119.88932800 168.01469421
113.46996307 119.89405823 168.02328491
113.47133636 119.82286835 168.00157166
113.50688934 119.87899017 167.99913025
113.49545288 119.88191223 168.00888062
113.46324158 119.88005066 168.02482605
113.45938110 119.89115143 168.02670288
113.45732117 119.90396881 168.02934265
113.51544952 119.87796021 167.99214172
113.62539673 119.90499115 167.85374451
113.63590240 119.90471649 167.85136414
113.61907959 119.90637207 167.86247253
113.62732697 119.90007019 167.86247253
113.63999939 119.91628265 167.83775330
113.64221191 119.92681885 167.83204651
113.63005066 119.91619873 167.84155273
113.63246155 119.92858887 167.84274292
113.62081909 119.91632080 167.85156250
113.64044189 119.91368103 167.84901428
113.62677765 119.92527771 167.85252380
113.64086151 119.92878723 167.84927368
113.61296844 119.91580200 167.85876465
113.63143158 119.91355896 167.85946655
113.66339874 119.92192078 167.81178284
113.67231750 119.92327118 167.80659485
113.65814972 119.93463135 167.80412292
113.65573883 119.92855072 167.81231689
113.65334320 119.92002869 167.82202148
113.66613007 119.91818237 167.82385254
113.66529083 119.93459320 167.81239319
113.65788269 119.93412018 167.82208252
113.65074158 119.91465759 167.83163452
113.66217804 119.92433167 167.83082581
113.65522766 119.93123627 167.83741760
113.60658264 119.89910889 167.87782288
113.59924316 119.89145660 167.89056396
113.59265137 119.90444183 167.88281250
113.61769867 119.89331055 167.87596130
113.61135101 119.89524841 167.88577271
113.61569214 119.90476227 167.87628174
113.59490204 119.90287018 167.89262390
113.60076904 119.90898132 167.87521362
113.60968781 119.91589355 167.87527466
113.60621643 119.90863037 167.88752747
113.62232208 119.91687012 167.86322021
113.59174347 119.89170074 167.89807129
113.58692169 119.88519287 167.90757751
113.59805298 119.89008331 167.90663147
113.60259247 119.90772247 167.89807129
113.58885193 119.89691162 167.90808105
113.58570099 119.87831879 167.91838074
113.58683777 119.89852142 167.91807556
113.83470154 119.83325195 167.84526062
113.81857300 119.84102631 167.84846497
113.82315063 119.83052826 167.84982300
113.80226898 119.84433746 167.85354614
113.78546143 119.86380005 167.85185242
113.79363251 119.85491180 167.85063171
113.77966309 119.87284088 167.85168457
113.76098633 119.90650177 167.81561279
113.77098083 119.90598297 167.81645203
113.76371002 119.89730072 167.82431030
113.75196075 119.91754150 167.80125427
113.75309753 119.92346191 167.81088257
113.77185059 119.91651917 167.80639648
113.74623108 119.92993164 167.80378723
113.74947357 119.92144775 167.82063293
113.75199127 119.90917206 167.82759094
113.76773834 119.88538361 167.84269714
113.76879883 119.90013885 167.83406067
113.76039886 119.89640045 167.84025574
113.76869202 119.89031219 167.85446167
113.77175903 119.88065338 167.86152649
113.76328278 119.88716125 167.86239624
113.77700806 119.90274048 167.80793762
113.77610016 119.89575958 167.82107544
113.73976135 119.91020203 167.80938721
113.75830841 119.82720947 167.87603760
113.76569366 119.83361053 167.88066101
113.76860809 119.87429047 167.87690735
113.75936890 119.84812927 167.88220215
113.76793671 119.84958649 167.89282227
113.76422119 119.85800171 167.88824463
113.76074982 119.87062073 167.89033508
113.76876068 119.84362793 167.90989685
113.76943207 119.82019043 167.92691040
113.76856232 119.84320068 167.92007446
113.75917053 119.85495758 167.90078735
113.77120972 119.85597992 167.90103149
113.76084137 119.88230133 167.87648010
113.76004028 119.80397034 167.95843506
113.75202942 119.79548645 167.97343445
113.75077057 119.80413055 167.96846008
113.74635315 119.78936768 167.98239136
113.75330353 119.78356934 167.99252319
113.74935150 119.77989960 168.00856018
113.73983765 119.76901245 168.02789307
113.74623108 119.76846313 168.03648376
113.76277161 119.82019043 167.94041443
113.76399231 119.83178711 167.92944336
113.75846100 119.83464050 167.93927002
113.75247192 119.81522369 167.95689392
113.76264954 119.81285095 167.94769287
113.43058014 119.43653107 168.05804443
113.43795013 119.44071198 168.06645203
113.44486237 119.43360901 168.06834412
113.42900085 119.44683075 168.06738281
113.44651031 119.44660187 168.07284546
113.38436127 119.67875671 168.12036133
113.36479187 119.64285278 168.16609192
113.38072968 119.64276123 168.16427612
113.39718628 119.64328003 168.15066528
113.42685699 119.63542175 168.13507080
113.43029022 119.64505005 168.13536072
113.44107056 119.63581848 168.13960266
113.40524292 119.66288757 168.12994385
113.41976166 119.65228271 168.13270569
113.48036957 119.60369873 168.14312744
113.49545288 119.59194183 168.14991760
113.50153351 119.60192108 168.16017151
113.49015808 119.60373688 168.15472412
113.49923706 119.61470795 168.16560364
113.49082947 119.61454773 168.15596008
113.39430237 119.66900635 168.12434387
113.46128082 119.62346649 168.14364624
113.34738159 119.70684814 168.07533264
113.35938263 119.71367645 168.05638123
113.33705139 119.72666168 168.06384277
113.33518982 119.73873901 168.05816650
113.34644318 119.72927094 168.07090759
113.34741974 119.73428345 168.05867004
113.34928131 119.71806335 168.07661438
113.35643005 119.72959137 168.07296753
113.35729218 119.72918701 168.08700562
113.35366058 119.71475220 168.09335327
113.36450958 119.70333862 168.10345459
113.37433624 119.69082642 168.11140442
113.38539124 119.69284058 168.11862183
113.43364716 119.87140656 168.10118103
113.44303894 119.87259674 168.11322021
113.32608032 119.91880798 168.11534119
113.41313171 119.90586090 168.08807373
113.42243958 119.88569641 168.09196472
113.42880249 119.88475037 168.10281372
113.42098236 119.89733887 168.09225464
113.33132172 119.91548920 168.12777710
113.46118927 119.85814667 168.12986755
113.45475769 119.86004639 168.12103271
113.45594025 119.87126160 168.12373352
113.46582031 119.85218811 168.13792419
113.46021271 119.86100006 168.14532471
113.46533203 119.85514832 168.15422058
112.82154083 120.26129913 168.03358459
112.82479095 120.26123047 168.04371643
112.82849121 120.27191162 168.03909302
112.82852936 120.26537323 168.05493164
112.81851196 120.28051758 168.04939270
112.82498169 120.28439331 168.04008484
112.81984711 120.31835938 168.02647400
112.81153107 120.33344269 168.02423096
112.81342316 120.34176636 168.03311157
112.81417084 120.34835052 168.04376221
112.80580139 120.38999176 168.03981018
112.81192017 120.36106110 168.04159546
112.80982208 120.37767792 168.04722595
112.81768036 120.37123871 168.04632568
112.81587219 120.38655090 168.04936218
112.91301727 120.33695221 168.05476379
112.93311310 120.35588837 168.04640198
112.81587219 120.39586639 168.04350281
112.82028198 120.40483093 168.04162598
112.82494354 120.39649963 168.05105591
112.83468628 120.40357208 168.05151367
112.82852936 120.41059113 168.04226685
112.83232117 120.42131805 168.04217529
112.83718109 120.42188263 168.05177307
112.85930634 120.40667725 168.05409241
112.84889221 120.42163849 168.04797363
112.84471130 120.41101837 168.05412292
112.86495209 120.41670227 168.05145264
112.81475830 120.43257141 168.03129578
112.81255341 120.44461060 168.02824402
112.83078003 120.42945099 168.03642273
112.81877899 120.45388031 168.03436279
112.82991028 120.44635010 168.03550720
112.82901001 120.44473267 168.05531311
112.84111786 120.42613220 168.03981018
112.84065247 120.43955231 168.03709412
112.85446167 120.43952179 168.04403687
112.83744812 120.43285370 168.05235291
112.85855865 120.42491150 168.04928589
112.85228729 120.43244934 168.05386353
112.86949158 120.42890167 168.05200195
112.86808014 120.43852234 168.04881287
112.84396362 120.44125366 168.04893494
112.87734222 120.41855621 168.05351257
112.88507843 120.43833160 168.05026245
112.94270325 120.36666107 168.04414368
112.97177887 120.38845062 168.03540039
112.99088287 120.38552856 168.04005432
113.00019073 120.39109039 168.04493713
113.05982208 120.38320160 168.03697205
113.03582764 120.39070129 168.04695129
113.04656219 120.39073944 168.04321289
113.05819702 120.39118195 168.04774475
112.98053741 120.39408875 168.04423523
112.97722626 120.40305328 168.05018616
112.99320221 120.40139008 168.04458618
112.99475098 120.41236115 168.04684448
112.98195648 120.43170166 168.05162048
113.00588226 120.40676117 168.04640198
113.01731873 120.40683746 168.04765320
113.02706146 120.40325165 168.04199219
113.02896118 120.40483093 168.05189514
113.00212097 120.41188812 168.05429077
113.02198029 120.41407013 168.05444336
113.04122925 120.40148163 168.04417419
113.03984833 120.40290070 168.05496216
113.05477142 120.40261841 168.04080200
113.18242645 120.32514954 168.02145386
113.31909180 120.24243927 168.01356506
113.29860687 120.25720215 168.02200317
113.30941772 120.25660706 168.01510620
113.25109100 120.28806305 168.02267456
113.31584930 120.25853729 168.02296448
113.19367218 120.32534790 168.02319336
113.24240875 120.29051208 168.03175354
113.20314789 120.31568146 168.02458191
113.21617126 120.31004333 168.02821350
113.22399139 120.30478668 168.03421021
113.20201111 120.32534790 168.03050232
113.21269989 120.32018280 168.02813721
113.21775055 120.31571960 168.03933716
113.22039032 120.32546234 168.04841614
113.24687195 120.29862976 168.02777100
113.23348999 120.30728149 168.03082275
113.22805023 120.31587982 168.04623413
113.23413086 120.32594299 168.05447388
113.26921082 120.27787018 168.02214050
113.28649139 120.26947021 168.01925659
113.28263092 120.27847290 168.02319336
113.26152039 120.28482056 168.02374268
113.27034760 120.28510284 168.02928162
113.26132202 120.29476166 168.02806091
113.12741852 120.35002136 168.02339172
113.11160278 120.35833740 168.03192139
113.12355042 120.35633087 168.03294373
113.07418060 120.37397003 168.03077698
113.09127045 120.36508942 168.02806091
113.08412933 120.36540222 168.03550720
113.09017181 120.37499237 168.03575134
113.08078003 120.38394928 168.03941345
113.10311127 120.36200714 168.02545166
113.10050201 120.37133026 168.03149414
113.11752319 120.36109924 168.03976440
113.10430145 120.36572266 168.03953552
113.10130310 120.37877655 168.04063416
113.16957092 120.33009338 168.02281189
113.13964844 120.34085846 168.03369141
113.15950012 120.33071136 168.02406311
113.15789032 120.34039307 168.02612305
113.14694977 120.34523773 168.02453613
113.14170074 120.35044861 168.03169250
113.14904022 120.33438110 168.03717041
113.15000153 120.34539795 168.03578186
113.13381195 120.35778809 168.04025269
113.16770935 120.34227753 168.03143311
113.16306305 120.33348083 168.03398132
113.17813110 120.33171082 168.02815247
113.17797089 120.34172058 168.03453064
113.18743896 120.33576202 168.03210449
113.06732178 120.39444733 168.04443359
113.18721008 120.42381287 168.05354309
113.31420135 120.42160034 167.99060059
113.21246338 120.33818054 168.03172302
113.20069885 120.42385101 168.05009460
113.22248077 120.42050171 168.04396057
113.21186829 120.41835785 168.05157471
113.24726868 120.42234802 168.03132629
113.23413086 120.42080688 168.04281616
113.22229004 120.42874146 168.03712463
113.21006012 120.42642212 168.04222107
113.23787689 120.42575073 168.03373718
113.25398254 120.42700195 168.02493286
113.22682190 120.42681122 168.05116272
113.26364136 120.42030334 168.02354431
113.28823090 120.42211151 168.00822449
113.27417755 120.41697693 168.01893616
113.28417206 120.41638947 168.02122498
113.31099701 120.41970062 168.00027466
113.30191803 120.42176056 168.01344299
113.27165222 120.42672729 168.01870728
113.27922821 120.43051147 168.01127625
113.29904175 120.42404175 168.00143433
113.28819275 120.42942047 168.01901245
113.31735229 120.42964935 168.00898743
113.25669861 120.42198944 168.03749084
113.26902008 120.42707825 168.03570557
112.88838959 119.95278168 168.13310242
112.89431000 119.96080017 168.13458252
112.89959717 119.94422150 168.14190674
112.88128662 119.97570801 168.13087463
112.86676788 120.01145935 168.13183594
112.85891724 120.01777649 168.12947083
112.85575867 120.03578186 168.13403320
112.86593628 120.02752686 168.13673401
112.99806213 120.03601074 168.23179626
112.99829865 120.02011108 168.23486328
112.98819733 120.04071045 168.23393250
112.99553680 120.04981995 168.23539734
112.99996185 120.01457977 168.21699524
113.03981018 120.05214691 168.21577454
113.05252075 120.06210327 168.20599365
113.00623322 120.02057648 168.22824097
113.01127625 120.03211212 168.22375488
113.01470947 120.02777100 168.23326111
113.02079010 120.03723145 168.23042297
113.00485229 120.02262878 168.24484253
113.02036285 120.02874756 168.24438477
113.01187134 120.04414368 168.24072266
112.98583221 120.00405121 168.26072693
112.97131348 120.00140381 168.27035522
112.99057007 120.01557159 168.25578308
112.98232269 120.00736237 168.27043152
112.99578094 120.01399231 168.26759338
112.92485809 120.18016815 168.29663086
112.92749786 120.19287109 168.28436279
112.93492126 120.18045044 168.29446411
112.94348145 120.18755341 168.28665161
113.05571747 120.19413757 168.27499390
113.17421722 119.95326233 168.17117310
113.18566132 119.95168304 168.17294312
113.19029236 119.96106720 168.17323303
113.19130707 119.97003174 168.17758179
113.31253815 119.95140076 168.09979248
112.92852783 120.17456055 168.30540466
113.30977631 119.96209717 168.09767151
113.30420685 119.98213959 168.09489441
113.30133057 120.00061035 168.09616089
113.30402374 119.99105835 168.10023499
113.31712341 120.02278900 168.08175659
113.29952240 120.01170349 168.10003662
113.31992340 120.02033997 168.09399414
113.30177307 120.02433014 168.09509277
113.30606079 120.01963043 168.10409546
113.31053162 120.02748108 168.09033203
113.29615784 120.02599335 168.10362244
113.30473328 120.03250122 168.10035706
113.28764343 120.04689789 168.10786438
113.27800751 120.05760193 168.11210632
113.29376221 120.04244232 168.09912109
113.29927826 120.04292297 168.10812378
113.29376221 120.05223083 168.11439514
113.19348145 119.94248199 168.18437195
113.21147156 119.96994781 168.18365479
113.20330048 119.96056366 168.18338013
113.19848633 119.97937775 168.17686462
113.20027161 119.99717712 168.17477417
113.19325256 120.02266693 168.16798401
113.19927979 120.00731659 168.17071533
113.19982910 120.03037262 168.17131042
113.19754028 120.05728149 168.17808533
113.20365906 120.06497192 168.18322754
113.27245331 120.05854034 168.12489319
113.26687622 120.06690979 168.12811279
113.28550720 120.05802917 168.12059021
113.25377655 120.07302094 168.13577271
113.23886108 120.08321381 168.14431763
113.23191071 120.08688354 168.15243530
113.25611115 120.07850647 168.14549255
113.20500183 120.09927368 168.16554260
113.22308350 120.09095001 168.16000366
113.21633148 120.09809113 168.16853333
113.20362091 120.07637787 168.18460083
113.21147156 120.08348083 168.18121338
113.19451141 120.08270264 168.18214417
113.20752716 120.09243774 168.17303467
113.20346069 120.09355164 168.18214417
113.24806213 120.07740784 168.15303040
113.24256897 120.08096313 168.16061401
113.25464630 120.08321381 168.15902710
113.23333740 120.08759308 168.16299438
113.23957062 120.07772064 168.17686462
113.24916077 120.07839203 168.17213440
113.24893188 120.07029724 168.18380737
113.25618744 120.08850098 168.16937256
113.19834137 120.10259247 168.18380737
113.27256012 120.09239960 168.17065430
113.28421021 120.09279633 168.17280579
113.22308350 120.08959961 168.17030334
113.29814148 120.08187103 168.17982483
113.18662262 119.94142151 168.19482422
113.20649719 119.94647217 168.19299316
113.21257782 119.96000671 168.18992615
113.07028198 120.07563019 168.19514465
113.08630371 120.07132721 168.18951416
113.08228302 120.08261108 168.19885254
113.09513855 120.09110260 168.19630432
113.10729218 120.09860229 168.20721436
113.12718201 120.09590912 168.20457458
113.10373688 120.10294342 168.19467163
113.11522675 120.10198975 168.20013428
113.12745667 120.10794830 168.20547485
113.12564087 120.12303162 168.22993469
113.12500763 120.13179016 168.24269104
113.18807220 120.10140228 168.19084167
113.14173889 120.10720062 168.21475220
113.15962219 120.11592102 168.21449280
113.13291168 120.11798096 168.21238708
113.14312744 120.11788940 168.21585083
113.19084167 120.11650848 168.18858337
113.18447876 120.10894012 168.20068359
113.17279816 120.11165619 168.20564270
113.16979980 120.11071014 168.21562195
113.14131165 120.12767792 168.22128296
113.15493011 120.11549377 168.22537231
113.15283203 120.12299347 168.21739197
113.14214325 120.12365723 168.23120117
113.13760376 120.12850952 168.24052429
113.16356659 120.11840820 168.23051453
113.17327118 120.12696838 168.23851013
113.18058014 120.13076019 168.24806213
113.11715698 120.14425659 168.24734497
113.19151306 120.13802338 168.24931335
113.18733215 120.11702728 168.24995422
113.08824158 120.16390228 168.25630188
113.10675049 120.14878845 168.26269531
113.11415863 120.14398193 168.25776672
113.10130310 120.15444183 168.25152588
113.10761261 120.16454315 168.26443481
113.08645630 120.16959381 168.26451111
113.07643127 120.17630005 168.26925659
113.07008362 120.17917633 168.27998352
113.06590271 120.19418335 168.27061462
113.06475067 120.18892670 168.27951050
113.07904053 120.18565369 168.27432251
113.09700012 120.16912079 168.26170349
113.10208130 120.17954254 168.25764465
113.10756683 120.17550659 168.26652527
113.11660767 120.18920135 168.27049255
113.08997345 120.16367340 168.30569458
113.09758759 120.15914154 168.31250000
113.07489014 120.18363953 168.28874207
113.07675171 120.17472076 168.30110168
113.09645081 120.17176056 168.30311584
113.30007172 120.09085846 168.18641663
113.31127167 120.09039307 168.19198608
113.31379700 120.10310364 168.19595337
113.31896973 120.10968781 168.20405579
113.19783020 120.12558746 168.25230408
113.20247650 120.14160919 168.25389099
113.21073151 120.14740753 168.25946045
113.20240021 120.15711975 168.25563049
113.21688080 120.15807343 168.26518250
113.23409271 120.14832306 168.27122498
113.22746277 120.15901184 168.27026367
113.23989105 120.16371155 168.27635193
113.24368286 120.15010071 168.27754211
113.23301697 120.16908264 168.27134705
113.25331116 120.15847015 168.28317261
113.26412201 120.18596649 168.29167175
113.27410126 120.18872833 168.29461670
112.90576172 120.32669067 168.06259155
113.06301117 120.31172943 168.07612610
113.04730988 120.32360840 168.07243347
113.06131744 120.30625153 168.09106445
113.05776978 120.30525970 168.10130310
112.83489227 120.45359802 168.06144714
112.91976929 120.42108154 168.06132507
112.92987061 120.41979218 168.06637573
112.87502289 120.43675232 168.05647278
112.89093018 120.43659210 168.05978394
112.90245056 120.43702698 168.06085205
112.92102814 120.43269348 168.06770325
112.93373871 120.45436096 168.09184265
113.05081940 120.34329987 168.06628418
113.06159210 120.34528351 168.07124329
113.05034637 120.35817719 168.06683350
113.05860138 120.32804108 168.07548523
113.05117798 120.36868286 168.06373596
112.94367981 120.42050171 168.07002258
112.97094727 120.41259766 168.06172180
112.98345947 120.41326904 168.05789185
112.99005127 120.42218781 168.05986023
112.98258972 120.42117310 168.06752014
112.95176697 120.43952179 168.06126404
112.96269989 120.42527008 168.07205200
112.95300293 120.43885040 168.07202148
112.94380188 120.44228363 168.06889343
112.96514893 120.44029999 168.06849670
112.95208740 120.42693329 168.07304382
112.94506073 120.45207214 168.07916260
112.95295715 120.43872070 168.08685303
112.93499756 120.45104218 168.08058167
112.96076965 120.44053650 168.07844543
112.97252655 120.43141937 168.06120300
112.95575714 120.45191193 168.08656311
112.96626282 120.45021057 168.08471680
112.98538971 120.44315338 168.06712341
112.99507141 120.44252014 168.07011414
112.99234009 120.43182373 168.06973267
112.99021149 120.45274353 168.07110596
112.98120880 120.43533325 168.07365417
112.97569275 120.44725037 168.07670593
112.94513702 120.44898224 168.09419250
113.01088715 120.41422272 168.05903625
113.01869965 120.42111969 168.06219482
113.03540039 120.41146088 168.06030273
113.03578949 120.41631317 168.06924438
113.00241089 120.42443848 168.05885315
113.01894379 120.43023682 168.06712341
113.02749634 120.43489838 168.07063293
113.00592041 120.43592072 168.07208252
113.01618195 120.43833160 168.07327271
113.02339172 120.43390656 168.08033752
113.00618744 120.44654083 168.07426453
113.02127075 120.45150757 168.08192444
113.06227112 120.44467926 168.07156372
113.03428650 120.42957306 168.07580566
113.03453064 120.43801117 168.08328247
113.04592896 120.43367004 168.08349609
113.03378296 120.44322205 168.07403564
113.05728912 120.42459869 168.08499146
113.04075623 120.45001221 168.07890320
113.05638885 120.43778229 168.08392334
113.03188324 120.45198059 168.08360291
113.05117798 120.44618225 168.07954407
113.05638885 120.45214081 168.09234619
112.95018768 120.21295929 168.27200317
112.94029236 120.20439148 168.28143311
112.93871307 120.21485138 168.27508545
112.93598175 120.22630310 168.27540588
112.95559692 120.22207642 168.27067566
112.96676636 120.22522736 168.27232361
112.95082092 120.22875214 168.27726746
112.97518158 120.23135376 168.27049255
112.98037720 120.24034119 168.27322388
112.99159241 120.24272156 168.27655029
112.99845123 120.25435638 168.27804565
112.95520020 120.20673370 168.28286743
113.00079346 120.22808075 168.27784729
113.01451874 120.22946167 168.28140259
113.02947235 120.22512054 168.28021240
113.04119110 120.21083069 168.27595520
113.04708099 120.20352936 168.27168274
113.06218719 120.20320892 168.27572632
113.05010986 120.21257019 168.28021240
113.00823975 120.23706818 168.27516174
113.01669312 120.24144745 168.28286743
113.00907135 120.25348663 168.28474426
112.99033356 120.27195740 168.29034424
112.97844696 120.28115082 168.29600525
112.97099304 120.28730774 168.30168152
112.95986176 120.31758118 168.31202698
112.96858215 120.30056763 168.30090332
112.99929047 120.26512909 168.28593445
113.06326294 120.32254791 168.08491516
113.06459045 120.31600189 168.09466553
113.06427765 120.30297089 168.11006165
113.06645203 120.35471344 168.06538391
113.06472015 120.33592224 168.08131409
113.06771088 120.32981110 168.09202576
113.07559967 120.42198944 168.08476257
113.09909058 120.42356873 168.08459473
113.07205200 120.43599701 168.08012390
113.08898163 120.42606354 168.07351685
113.08570862 120.43656158 168.07484436
113.09072113 120.43592072 168.08384705
113.06423950 120.44548035 168.08392334
113.11270142 120.42494965 168.06582642
113.10282898 120.43386841 168.08239746
113.11731720 120.42633057 168.07667542
113.12741852 120.42565918 168.07278442
113.11293793 120.43666840 168.08366394
113.15606689 120.42301941 168.06408691
113.14237213 120.42365265 168.07220459
113.13266754 120.41809082 168.08319092
113.16696167 120.42310333 168.06396484
113.18215179 120.41545105 168.06344604
113.14360046 120.43182373 168.07890320
113.15310669 120.42764282 168.07466125
113.18334198 120.42968750 168.06752014
113.24343872 120.33628082 168.06376648
113.25334167 120.33305359 168.07336426
113.26270294 120.33174133 168.07670593
113.25942230 120.34145355 168.07521057
113.27387238 120.33963013 168.08012390
113.27867889 120.32834625 168.08511353
113.28321838 120.33840942 168.08775330
113.27655029 120.35083771 168.08851624
113.28692627 120.34752655 168.09411621
113.27938843 120.35865021 168.09634399
113.30227661 120.34487915 168.09976196
113.29467010 120.35542297 168.10011292
113.27509308 120.36557007 168.10342407
113.26233673 120.37483215 168.10661316
113.28447723 120.36551666 168.11288452
113.31948090 120.36184692 168.11549377
113.19584656 120.42105103 168.05990601
113.20413208 120.42693329 168.05969238
113.21617126 120.42942047 168.05749512
113.29293060 120.33329010 168.09494019
113.25125122 120.38577271 168.12773132
113.26112366 120.38118744 168.12123108
113.12577057 120.23742676 168.29295349
113.12805176 120.21781158 168.27409363
113.13227081 120.22421265 168.28219604
113.26896667 120.19895172 168.29620361
113.28350067 120.20436096 168.30015564
113.27307129 120.20937347 168.30029297
113.26724243 120.21871948 168.30397034
113.27887726 120.21820831 168.30334473
113.28353119 120.22870636 168.30473328
113.28945160 120.23754120 168.31379700
113.56051636 120.14923096 167.91937256
113.54225159 120.15857697 167.92285156
113.57804108 120.14832306 167.91314697
113.57144928 120.14366150 167.92497253
113.55216217 120.15605164 167.92616272
113.56861115 120.15807343 167.92355347
113.37489319 119.96450043 168.05229187
113.35929871 119.97927094 168.05488586
113.37042999 119.97412872 168.05476379
113.40563202 119.94489288 168.04510498
113.39028168 119.94642639 168.05319214
113.38578033 119.95700073 168.04869080
113.41017151 119.94686127 168.05418396
113.39955139 119.95104218 168.05078125
113.43582153 120.19342041 167.97813416
113.44612122 120.19090271 167.97833252
113.43566132 120.19776154 167.98970032
113.38349152 120.17401123 168.03776550
113.37468719 120.18096161 168.03550720
113.36387634 120.19393921 168.03523254
113.38239288 120.19156647 168.03152466
113.42043304 120.19693756 168.00410461
113.43206787 120.19371033 168.00105286
113.39064026 120.14176941 168.05075073
113.39849091 120.13581085 168.05496216
113.39749908 120.14891052 168.05406189
113.38941193 120.15679932 168.04588318
113.39920044 120.16082764 168.05105591
113.39376068 120.17353821 168.03894043
113.51174164 120.16015625 167.93116760
113.48889160 120.16387177 167.94900513
113.45984650 120.18576813 167.95692444
113.47087097 120.17917633 167.95031738
113.48111725 120.18096161 167.95556641
113.49517059 120.16699219 167.94166565
113.50666046 120.16706085 167.94166565
113.50025940 120.17259216 167.95086670
113.48857880 120.17559052 167.94735718
113.45078278 120.19126129 167.96452332
113.47373962 120.18695068 167.96321106
113.46395111 120.18801880 167.96913147
113.45571136 120.19686127 167.98275757
113.52098083 120.15632629 167.93338013
113.53170776 120.15786743 167.92883301
113.54170227 120.15151215 167.93106079
113.52140808 120.16683197 167.93756104
113.57109833 120.17688751 167.94842529
113.48602295 120.15415955 168.05398560
113.48715973 120.16429901 168.05200195
113.49387360 120.17674255 168.04948425
113.50025940 120.19203949 168.04443359
113.67729187 119.94122314 167.80694580
113.70352936 120.06726074 167.85493469
113.73770905 120.03707123 167.81018066
113.74462128 120.02639008 167.80708313
113.72792053 120.05104065 167.81245422
113.72361755 120.05332947 167.82521057
113.73166656 120.04205322 167.81929016
113.71739197 120.06291962 167.82498169
113.73873138 120.05001831 167.81483459
113.73529816 120.05751801 167.82759094
113.74299622 120.04264069 167.80291748
113.74926758 120.04505157 167.81036377
113.71948242 120.05261993 167.83580017
113.72673798 120.04342651 167.83200073
113.71131134 120.06726074 167.83615112
113.71257019 120.05964661 167.84948730
113.72035217 120.06143188 167.86068726
113.72145081 120.06797028 167.84558105
113.69895172 120.07311249 167.86262512
113.69792938 120.08261108 167.85939026
113.64315033 120.12361145 167.90817261
113.62641907 120.13363647 167.91658020
113.63825989 120.13269043 167.91705322
113.67516327 120.09575653 167.88168335
113.68309021 120.08351898 167.87809753
113.67070007 120.09667206 167.89155579
113.68869019 120.09027100 167.86659241
113.69500732 120.07405090 167.87182617
113.68904877 120.09477234 167.87814331
113.70349121 120.07800293 167.88377380
113.69480896 120.08573151 167.89288330
113.66838074 120.10717010 167.89288330
113.68357086 120.09452820 167.90063477
113.65602112 120.11170197 167.90321350
113.65226746 120.11682892 167.91096497
113.66655731 120.11418152 167.90043640
113.64320374 120.12216187 167.91818237
113.66323853 120.12345886 167.91200256
113.65293884 120.13024139 167.91514587
113.59133911 120.14379120 167.91606140
113.58152008 120.13996124 167.92553711
113.60562134 120.14051056 167.91752625
113.60041809 120.14945984 167.91296387
113.59837341 120.14379120 167.92468262
113.61810303 120.14761353 167.91798401
113.63269806 120.14102173 167.91992188
113.61151123 120.14354706 167.92706299
113.63262177 120.15052795 167.92564392
113.71147156 120.07128906 167.84742737
113.70819092 120.08029175 167.85896301
113.71086884 120.07054138 167.87265015
113.62248230 120.13767242 167.92718506
113.62239838 120.14942169 167.92735291
113.62259674 120.15226746 167.93843079
113.61277008 120.16114044 167.93603516
113.62227631 120.16265106 167.93954468
113.60787201 120.16931152 167.94296265
113.58393097 120.18158722 167.95256042
113.60392761 120.17851257 167.95216370
113.61016083 120.18624115 167.95729065
113.62023163 120.17156219 167.94825745
113.59774017 120.19615173 167.96676636
113.60993195 120.19335175 167.96649170
113.44960022 120.40644073 167.91546631
113.44541168 120.40305328 167.92703247
113.43669128 120.41374207 167.91598511
113.54193115 120.38999176 167.85971069
113.56088257 120.39077759 167.85667419
113.57698059 120.38990784 167.85122681
113.57839203 120.38159180 167.85693359
113.53191376 120.39157104 167.87663269
113.54216766 120.39073944 167.87182617
113.55432129 120.39176178 167.86630249
113.51383209 120.39891052 167.87738037
113.50164032 120.39866638 167.89163208
113.51100159 120.39536285 167.88783264
113.46199036 120.40100098 167.90858459
113.47567749 120.40091705 167.89984131
113.48168182 120.40328217 167.90780640
113.45807648 120.40151215 167.91842651
113.46949005 120.40672302 167.91653442
113.45496368 120.40928650 167.92532349
113.48882294 120.39678192 167.90165710
113.49044037 120.40570068 167.89723206
113.52761078 120.39949799 167.86688232
113.52590942 120.39408875 167.88557434
113.51672363 120.40380096 167.89378357
113.42295074 120.20069122 167.98782349
113.34908295 120.22981262 168.00572205
113.34995270 120.22839355 168.01945496
113.38494873 120.21411133 168.00059509
113.36637115 120.22183990 168.00410461
113.35812378 120.22492218 168.01292419
113.36913300 120.22409058 168.01858521
113.37560272 120.21939087 168.00793457
113.34252930 120.23320007 168.01388550
113.33944702 120.23063660 168.02322388
113.32737732 120.24974060 168.01928711
113.34398651 120.22283173 168.03045654
113.39998627 120.21257019 168.00366211
113.41538239 120.20475006 167.99916077
113.40583038 120.20443726 168.00558472
113.41503143 120.21636200 167.99771118
113.39376068 120.20712280 168.01431274
113.33313751 120.23876953 168.01408386
113.39067078 120.22141266 168.00787354
113.50554657 120.20697021 168.03912354
113.50685120 120.21691132 168.03279114
113.53878021 120.24642181 168.01368713
113.55744171 120.24977875 168.00755310
113.56932068 120.25727081 167.99356079
113.56746674 120.25325012 168.00755310
113.51676178 120.22338104 168.03140259
113.52509308 120.22949219 168.02928162
113.57848358 120.27294159 167.99530029
113.57460785 120.28430939 167.99612427
113.57492065 120.29322815 168.00070190
113.57752991 120.30357361 168.00828552
113.38514709 120.42910004 167.94345093
113.36888885 120.45545197 167.95779419
113.38060760 120.44523621 167.95216370
113.33807373 120.41587067 167.97456360
113.32639313 120.42030334 167.98835754
113.35015106 120.41539764 167.98216248
113.33972931 120.42108154 167.98567200
113.36525726 120.41584015 167.96748352
113.37863922 120.41335297 167.96116638
113.38519287 120.42096710 167.96130371
