0.53939384 -0.07423783 0.36097050
0.55423301 -0.07758714 0.34262943
0.55912346 -0.07340623 0.35149479
0.55411094 -0.07123948 0.36332035
0.55777305 -0.05737687 0.36132145
0.57545799 -0.10940171 0.36097050
0.44948906 -0.04913712 0.25965214
0.47517723 -0.04569627 0.25232792
0.55437797 -0.04732133 0.35035038
0.35312217 0.08728408 0.33071232
0.35844752 0.09762191 0.32363224
0.84250206 -0.16641618 -0.06346798
0.37719291 0.10721206 0.31879520
0.84771293 -0.17380142 -0.05383969
0.84668297 -0.15852737 -0.05744076
0.85776848 -0.17355728 -0.04080868
0.85517448 -0.16251756 -0.04415036
0.84517998 -0.15292741 -0.04390621
0.86460441 -0.17462541 -0.03137875
0.85367149 -0.15817642 -0.03485775
0.86187309 -0.16453172 -0.03026486
0.86728233 -0.16847610 -0.02236080
0.84803337 -0.17470933 -0.00827694
0.85379356 -0.17924882 0.00127506
0.87012047 -0.16910934 -0.00347042
0.87474388 -0.17329025 -0.01367855
0.87469810 -0.17197801 0.00617313
0.88244194 -0.17564774 0.01322269
0.88953727 -0.17956161 0.02391910
1.05868101 0.23523331 -0.10658932
1.05890989 0.22599410 -0.10054684
1.05749083 0.24856184 -0.10985471
1.03319120 0.25930405 -0.11041928
1.04680204 0.26305008 -0.10816098
1.04091215 0.27114487 -0.10858822
1.03084898 0.32548141 -0.08992672
1.06302214 0.30349350 -0.14363766
1.04194212 0.31877518 -0.15112974
1.05227995 0.31122971 -0.15071774
1.03708982 0.32879257 -0.15025997
1.05157042 0.32213211 -0.14871885
1.06064939 0.31553268 -0.14556028
1.06984282 0.31530380 -0.14063168
1.04455137 0.33455276 -0.14351559
1.07130003 0.32631302 -0.13812925
1.05741453 0.33148575 -0.14316465
1.07982206 0.31830215 -0.13172056
1.08069181 0.32867050 -0.12889767
1.08816099 0.33253860 -0.12264157
1.04258299 0.28123856 -0.10665036
1.04529905 0.29130173 -0.10018063
1.04407072 0.30144882 -0.09538937
1.03524351 0.33574295 -0.08882809
1.20373869 0.19036484 -0.05531979
1.26379728 0.14762495 -0.13289547
1.26379728 0.15420914 -0.12050534
1.26905394 0.16278458 -0.12351132
1.26799345 0.17256545 -0.12547970
1.27410460 0.18037032 -0.12097836
1.26207304 0.14486313 -0.11505795
1.27324247 0.15326308 -0.11321163
1.27655363 0.14466476 -0.10690975
1.27836180 0.16404343 -0.11293698
1.27659178 0.19031905 -0.11821652
1.27568388 0.17505263 -0.10855770
1.28499174 0.18657303 -0.10571957
1.28419828 0.19845200 -0.11267758
1.30479765 0.19363022 -0.10452938
1.29011869 0.20563126 -0.10547543
1.29486418 0.18338393 -0.10196591
1.30745268 0.19845200 -0.09509945
1.18235350 0.25966263 -0.08779049
1.18088865 0.27614975 -0.08901120
1.18322325 0.28602219 -0.08759213
1.18650389 0.23807143 -0.08049680
1.18567228 0.21810532 -0.05963803
1.18445158 0.24794388 -0.08740902
1.18429136 0.27121353 -0.07852841
1.18597746 0.29557419 -0.08467770
1.19108152 0.30392838 -0.07985592
1.19056273 0.31435013 -0.07509518
1.20295286 0.30546951 -0.07887936
1.20405149 0.31470108 -0.07414913
1.22185087 0.31317520 -0.07170773
1.19317198 0.32394028 -0.07395077
1.19332457 0.33439255 -0.07843685
1.20729399 0.33072281 -0.07501889
1.21162748 0.32126236 -0.07170773
1.28997374 0.21743391 -0.09651852
1.29995298 0.22172928 -0.08759213
1.30160093 0.21580887 -0.07443905
1.31277037 0.20965195 -0.08389951
1.30062437 0.23408127 -0.08267880
1.32000303 0.22832108 -0.07042599
1.35335112 0.23778915 -0.07591915
1.32540464 0.23752213 -0.06897641
1.30456114 0.24489211 -0.07509518
1.31849241 0.24640273 -0.07202816
1.31170988 0.26948166 -0.07153988
1.30949736 0.25677109 -0.06928159
1.34386778 0.25586319 -0.07768917
1.23076963 0.30231094 -0.06984616
1.24299955 0.30200577 -0.06917477
1.28779173 0.28598404 -0.06906796
1.25808287 0.30093002 -0.07051754
1.26870298 0.29920578 -0.06758786
1.27926970 0.29635239 -0.05937863
1.26395750 0.30192184 -0.05803585
1.23697233 0.31383896 -0.06960202
1.25110197 0.30661392 -0.06262875
1.22741270 0.32670212 -0.06877805
1.23716307 0.32469559 -0.06072140
1.30495787 0.27855301 -0.07094479
1.01909208 -0.17818069 0.19751835
1.02395201 -0.16834641 0.20150089
1.02054930 -0.15875627 0.20351505
1.02666807 -0.13177110 0.21354006
1.02336454 -0.14941789 0.20841312
1.02533293 -0.12633134 0.22335148
1.02411222 -0.12647630 0.23465824
1.03724241 -0.16038133 0.21102236
1.03595304 -0.14076614 0.21325016
1.03460264 -0.11784745 0.21720217
1.03428221 -0.10758592 0.22100161
1.04313231 -0.09625627 0.22193241
1.05093718 -0.06712724 0.22805117
1.05398130 -0.05280686 0.23153019
1.06041288 -0.04250718 0.23438358
1.06231260 -0.02754594 0.23687075
1.06688261 -0.01717759 0.23970890
1.06685209 -0.00276566 0.24326420
1.07225370 0.00753402 0.24613285
1.07011747 0.01858138 0.24858950
1.09368467 0.01732253 0.25379276
1.07746458 0.03084945 0.25129032
1.07644224 0.04375838 0.25386906
1.08610106 0.04841231 0.25536442
1.08207273 0.05997085 0.25701237
1.07083464 0.07394027 0.25804996
1.08918333 0.06921005 0.25785160
1.09633207 0.05144881 0.26215458
1.09711027 0.06356429 0.27367496
1.10081816 0.05358504 0.29029179
1.09624052 0.02244186 0.30513859
1.09775114 0.03306197 0.30098820
1.09225798 0.10224532 0.26554203
1.01278257 0.15942000 0.27027225
1.00642729 0.16838454 0.27336979
1.00004148 0.17760848 0.28307438
1.10035276 0.08578109 0.26326847
1.10886717 0.10965346 0.27056217
1.12932158 0.11270522 0.28098392
1.13534880 0.12134170 0.28492069
1.13823271 0.13688277 0.29329777
1.11535215 0.14750288 0.28130436
1.11744261 0.16040421 0.28910160
1.11565733 0.17016219 0.29270267
1.12703276 0.16874312 0.29247379
1.11754942 0.18180466 0.29679203
1.13279295 0.17959212 0.29766178
1.12205076 0.19900130 0.30481815
1.13499022 0.18960953 0.30111027
1.14396238 0.19919968 0.30474186
1.13254881 0.20260239 0.30745792
1.12758207 0.22493362 0.30999088
1.13866758 0.21947861 0.31192875
1.13756132 0.23207474 0.31314945
1.14706755 0.23539352 0.31867313
1.15069914 0.24482346 0.31934452
1.15552092 0.25843430 0.32312870
1.15674162 0.26877213 0.32595158
1.18081236 0.26944351 0.33176517
1.15477324 0.27713394 0.33219242
1.15741301 0.28862381 0.33350468
1.15252256 0.30697250 0.33184147
1.16289091 0.27701950 0.32486820
1.16739225 0.28644943 0.32885075
1.18317747 0.28451920 0.33355045
1.20256376 0.28644943 0.33619022
1.16179228 0.31418991 0.33477116
1.16624784 0.32563400 0.33765507
1.17106199 0.33471298 0.34325504
1.25220060 0.26639938 0.32734013
1.27682066 0.27098465 0.31255436
1.30646086 0.26538467 0.30185795
1.31878233 0.26597214 0.30103397
1.25650358 0.27315140 0.31902409
1.31404448 0.27630997 0.30413151
1.34852934 0.28451920 0.31240177
1.60940886 0.09510421 -0.28488827
1.60933256 0.10985183 -0.26004696
1.57693815 0.13431931 -0.21945858
1.59176970 0.12205123 -0.23660946
1.58455229 0.13135909 -0.22939205
1.55867338 0.14162064 -0.20041561
1.56565428 0.13711928 -0.21048643
1.57484007 0.13945389 -0.20535946
1.50188017 0.18093491 -0.15354061
1.55188322 0.14702988 -0.19165707
1.61648130 0.10122298 -0.27997494
1.62614775 0.10800551 -0.27516842
1.61600065 0.10717391 -0.26959896
1.64252043 0.11317061 -0.26663876
1.65310240 0.12359237 -0.26814938
1.66585112 0.12974167 -0.26451778
1.67756224 0.13598250 -0.26084042
1.68600798 0.15871046 -0.23932554
1.48112059 0.17879868 -0.14675045
1.47738218 0.19099045 -0.14459896
1.47970152 0.18093491 -0.13381100
1.47551298 0.18905257 -0.12876034
1.48230314 0.18657303 -0.12142086
1.44790220 0.20642470 -0.11009884
1.44967222 0.19742203 -0.10219479
1.45547056 0.19272231 -0.11395932
1.45729399 0.20350266 -0.11572933
1.47319365 0.19166183 -0.11818600
1.49875975 0.17959212 -0.13838865
1.49158049 0.18124007 -0.11525631
1.39844847 0.23503493 -0.08751583
1.36233854 0.25326157 -0.08992672
1.38472319 0.24161910 -0.08759213
1.39482450 0.24383163 -0.09398557
1.42058134 0.21293259 -0.10756588
1.44020414 0.21337508 -0.10890866
1.43570280 0.22339249 -0.10571957
1.42551756 0.22019576 -0.10089779
1.44079161 0.21068192 -0.09912777
1.45070219 0.24872208 -0.10855770
1.39686918 0.22552109 -0.08341122
1.36799192 0.24569321 -0.08386898
1.35595274 0.25599289 -0.08258725
0.78512138 0.70869827 -0.62071896
0.79932731 0.71411514 -0.62239742
0.83110374 0.70447922 -0.62523556
0.81515068 0.71431351 -0.62776852
0.80671257 0.72200394 -0.62827206
0.82522148 0.71950912 -0.62346554
0.68690056 0.81904221 -0.66387081
0.67360252 0.82680893 -0.66422176
0.66096824 0.83403397 -0.65837765
0.67174095 0.83513260 -0.65740108
0.64724296 0.84093857 -0.64746761
0.66041893 0.84180832 -0.64610958
0.64495414 0.84694290 -0.63849545
0.61516136 0.84781265 -0.60230160
0.76353019 0.73671341 -0.63968563
0.77063316 0.75128555 -0.63951778
0.73800224 0.76986313 -0.64758968
0.73906273 0.76304245 -0.63616085
0.73272270 0.78316116 -0.65100765
0.74795097 0.78596878 -0.65183163
0.75204796 0.76690292 -0.64363766
0.76346153 0.76087570 -0.63957882
0.77198356 0.76908493 -0.64113522
0.76294273 0.77823257 -0.64969540
0.74628776 0.75293350 -0.61312008
0.75351280 0.76509476 -0.62792110
0.77099174 0.76821518 -0.63024044
0.79317039 0.73072433 -0.63777828
0.78260368 0.75996017 -0.63748837
0.81791252 0.76639175 -0.64070797
0.80208915 0.73478317 -0.62834835
0.78808159 0.74505234 -0.63191891
0.79632896 0.75231552 -0.61879635
0.81701225 0.73829269 -0.62779903
0.80485100 0.74882889 -0.62377071
0.82135338 0.74760818 -0.62512875
0.78859276 0.75506973 -0.63004208
0.80378288 0.75616837 -0.60794735
0.78370231 0.77238846 -0.63580990
0.81018394 0.76509476 -0.61205196
0.72419304 0.81129837 -0.65756893
0.73997062 0.80980301 -0.65228939
0.44861931 0.35527420 -0.25673580
0.41848320 0.37339401 -0.25464535
0.43142268 0.36194229 -0.24588682
0.45675227 0.34012222 -0.25685787
0.47554344 0.34386826 -0.25614071
0.46728843 0.34990311 -0.25290585
0.49045128 0.34060287 -0.25353146
0.48563713 0.35192490 -0.24658871
0.78749412 0.52626419 -0.30428219
0.81969017 0.50168228 -0.28578854
0.83512443 0.50365067 -0.28206539
0.74073356 0.55590439 -0.31751156
0.75564140 0.55562210 -0.31482601
0.73311180 0.56739426 -0.31983089
0.72690910 0.58620834 -0.32205868
0.73788017 0.53849411 -0.31024837
0.74521965 0.53380203 -0.30271053
0.75979179 0.53767014 -0.30654049
0.76909965 0.53724289 -0.30089474
0.75351280 0.53219223 -0.29386044
0.78173393 0.54413986 -0.31001949
0.78444999 0.53811264 -0.30062008
0.82039970 0.56328201 -0.25345516
0.82557243 0.56320572 -0.26293087
0.82837242 0.57788467 -0.23866940
0.70186180 0.61687088 -0.31572628
0.69124168 0.63016891 -0.30998898
0.70978874 0.61027908 -0.31214046
0.97806114 0.58948135 -0.59381771
0.90050834 0.65712357 -0.62061214
0.96226829 0.63801956 -0.66409969
0.96460289 0.64836502 -0.66493893
0.95382255 0.64363480 -0.65437984
0.96120018 0.65262222 -0.65416622
0.95015281 0.65407944 -0.64575863
0.95714134 0.64946365 -0.63822079
0.93058342 0.65703964 -0.62764645
0.93242973 0.64923477 -0.62161922
0.91677421 0.65478897 -0.61545467
0.94542259 0.63893509 -0.63020992
0.94420189 0.64863968 -0.63443661
0.86771721 0.67795944 -0.62018490
0.86021751 0.68584824 -0.61817074
0.88611168 0.66170120 -0.62374020
0.88570732 0.67354202 -0.61794186
0.90091270 0.66762161 -0.61897945
0.89759392 0.68214035 -0.61534786
0.83966392 0.71075058 -0.61991024
0.85090202 0.70518875 -0.61775875
0.86834282 0.69559860 -0.61528683
0.85454124 0.71583939 -0.61650753
0.93484062 0.68743515 -0.65357113
0.93772453 0.65834427 -0.63577938
0.93303245 0.70507431 -0.65495968
0.91968864 0.66244888 -0.62471676
0.91697258 0.66987228 -0.61836910
0.93046135 0.66749954 -0.62457943
0.97398704 0.59894943 -0.61537838
0.97197288 0.61573410 -0.61920834
0.96708244 0.63849258 -0.62613583
0.97564262 0.59967422 -0.60195065
0.94067711 0.74058151 -0.65875912
0.95343345 0.79583359 -0.65286922
0.95527977 0.80542374 -0.64746761
1.16629362 0.62685013 -0.66150570
1.16289091 0.65562057 -0.65598202
1.17971373 0.63454819 -0.64871883
1.17213011 0.65471268 -0.64946651
0.95012230 0.78387833 -0.65703487
1.17746305 0.65310287 -0.63838863
1.19131041 0.65696335 -0.62760067
1.19246244 0.64055252 -0.63423824
1.20662260 0.64698410 -0.62013912
1.18310118 0.66517258 -0.63690853
1.18120146 0.66067123 -0.62145138
1.20074034 0.66742325 -0.61897945
1.20788145 0.67263412 -0.61402035
1.19790220 0.67772293 -0.61173153
1.23862028 0.68483353 -0.57575130
1.23823118 0.68731308 -0.56268978
1.24743223 0.68861008 -0.55747128
1.24714994 0.69284439 -0.56928158
1.24663115 0.69619370 -0.55026913
1.25666380 0.69247818 -0.55400753
1.25599241 0.69816208 -0.54239559
1.26687956 0.69752884 -0.55261898
1.27308226 0.70334244 -0.54358578
1.27967405 0.68301010 -0.53438473
1.28692198 0.68770218 -0.52484798
1.26443052 0.69828415 -0.53505611
1.27354765 0.69694138 -0.52818966
1.26987791 0.71328354 -0.53174496
1.27800322 0.70640945 -0.52110958
1.27106047 0.71837234 -0.51402950
1.28818846 0.72259140 -0.50313473
1.28425169 0.71849442 -0.51698971
1.29481840 0.69304276 -0.51264095
1.29072142 0.71232986 -0.51114559
1.30204344 0.71631241 -0.50366879
1.34228849 0.71809006 -0.45870113
1.31115294 0.69417953 -0.50038815
1.28664732 0.73017502 -0.49571896
1.27907133 0.73684311 -0.49579525
1.30874968 0.72574997 -0.49336910
1.29912138 0.72756577 -0.49690914
1.31131315 0.72298050 -0.48340511
1.30475950 0.73537827 -0.47540951
1.31344175 0.72930527 -0.47444820
1.31057310 0.73939896 -0.46655941
1.31943846 0.73395157 -0.46510983
1.32094145 0.74705887 -0.45459652
1.32406187 0.73233414 -0.47421932
1.33005857 0.73609543 -0.46544552
1.32908201 0.73817825 -0.45448971
1.34865141 0.72370529 -0.44261837
1.33906126 0.73379898 -0.44359493
1.33861876 0.74260330 -0.45223141
1.34529448 0.74496078 -0.44374752
1.33487272 0.75535202 -0.44367123
1.32667112 0.74958420 -0.44603634
1.34900236 0.75306320 -0.43683529
0.84296745 0.49512863 -0.28253841
0.89332908 0.39477158 -0.27957821
0.96081108 0.35508347 -0.22070980
0.95517296 0.36348343 -0.22415829
0.93342155 0.39698410 -0.23874569
0.94056267 0.39090347 -0.23448849
0.95389885 0.37635422 -0.21730709
0.93982261 0.39994431 -0.23007870
0.87352318 0.45784378 -0.27086544
0.88713402 0.45341873 -0.26143551
0.90055412 0.44983292 -0.25768185
0.90596336 0.40776443 -0.26898861
0.90539879 0.42090225 -0.26174068
0.91681236 0.41770554 -0.25290585
0.90548271 0.43262100 -0.25614071
0.92888206 0.41553116 -0.24066830
0.93413109 0.41127396 -0.23326780
0.91807121 0.43010330 -0.24687864
0.91881889 0.42019272 -0.24336912
0.93358177 0.42882919 -0.24066830
0.95051140 0.37331009 -0.22721006
0.94668144 0.38199234 -0.23168087
0.96538109 0.34608078 -0.21166134
0.96486992 0.34987259 -0.20152952
0.95823997 0.36628342 -0.21367550
0.97063011 0.33964157 -0.20136166
1.27359343 0.51903915 -0.33040524
1.28471708 0.52433395 -0.33290768
1.24994993 0.53499222 -0.33518124
1.26198149 0.54138565 -0.33376217
1.27456999 0.54188919 -0.33841610
1.30108976 0.53199387 -0.32808590
1.31174803 0.53882217 -0.32562923
1.33464384 0.58462906 -0.31639767
1.32030821 0.59563828 -0.31787777
1.33203459 0.59623337 -0.31604671
1.33909178 0.60772324 -0.31102657
0.40584132 1.04753494 -0.66477108
0.63508171 0.85174942 -0.63167477
0.63256401 0.85215378 -0.62140560
0.62347740 0.85479355 -0.61458492
0.64669365 0.85424423 -0.61923885
1.15722227 0.88056564 -0.52693844
1.15722227 0.89248276 -0.52062130
1.16849852 0.86970901 -0.53656673
0.33027214 0.42942429 0.31153202
0.34669060 0.43112564 0.31783390
0.34800288 0.44536209 0.31594181
0.47120231 0.44800949 0.36266422
1.06215239 0.33953476 -0.13838865
1.04873228 0.34350967 -0.13381100
1.05385923 0.34584427 -0.12532711
1.06890440 0.33976364 -0.13014889
1.08097410 0.34331131 -0.12303829
1.07216978 0.35038376 -0.12950802
1.06420469 0.34848404 -0.12346555
1.08188200 0.35921860 -0.12020016
1.04992247 0.34666824 -0.11334896
1.07316160 0.36396408 -0.11545468
1.09199095 0.35993576 -0.11621762
1.08005857 0.36581039 -0.10623837
1.08816099 0.36029434 -0.09868527
1.08658171 0.37121201 -0.11209774
1.09127378 0.38108444 -0.10132504
1.09498167 0.38747025 -0.09146786
1.08977079 0.41375351 -0.08177853
1.09308195 0.43416214 -0.08313657
1.09041166 0.44800949 -0.07820797
1.09189939 0.45518875 -0.06117916
1.09127378 0.46110916 -0.07196713
0.94017357 0.54959488 -0.08859921
1.07934904 0.47275162 -0.06803036
1.07390928 0.48594284 -0.06442929
1.08610106 0.48246384 -0.05882931
1.07394743 0.49366379 -0.05554867
1.06187010 0.51607895 -0.05728817
1.06633329 0.50022507 -0.05914975
1.08574247 0.48870468 -0.04901791
1.05607176 0.52807999 -0.05142880
1.06289244 0.52054214 -0.04683590
1.06573820 0.50772476 -0.04840756
1.07651091 0.50937271 -0.05066586
1.00555754 0.56794357 -0.04454708
1.01703978 0.57086563 -0.04596615
1.03006315 0.58897018 -0.04123593
1.02808714 0.56955338 -0.04189205
1.05517149 0.54371262 -0.04975033
1.04584837 0.55302048 -0.04846859
1.03930235 0.56628036 -0.04477597
1.05343199 0.56276321 -0.04067135
1.04809904 0.57145309 -0.03942013
1.04135466 0.57946396 -0.04260922
0.97011894 0.53814316 -0.06822872
1.10469389 0.35132217 -0.10800839
1.11269712 0.36431503 -0.10425473
1.09798002 0.35910416 -0.10784055
1.12173796 0.35483932 -0.09816647
1.15114164 0.34698105 -0.08759213
1.12111235 0.36703110 -0.09903622
1.13736296 0.35902023 -0.09348202
1.14786100 0.35831070 -0.09044553
1.09771299 0.37181473 -0.10835934
1.10946226 0.37477493 -0.10192014
1.10414457 0.38399887 -0.09789182
1.11983824 0.38238144 -0.09674741
1.10643339 0.39426041 -0.09659481
1.13183928 0.37160873 -0.09352780
1.12643003 0.38542557 -0.08972836
1.10102415 0.39987564 -0.08818723
1.11558104 0.39722061 -0.09300900
1.12784910 0.39612198 -0.08905697
1.10795927 0.40567398 -0.09395504
1.09928465 0.41347885 -0.09015560
1.11664152 0.41443253 -0.08833981
1.14142942 0.37733078 -0.08467770
1.14750242 0.38582230 -0.08322811
1.15848112 0.39186478 -0.07808590
1.19159269 0.34616470 -0.08156491
1.18203306 0.35003281 -0.07567501
1.16156340 0.36123276 -0.08026791
1.17165709 0.35733414 -0.07453060
1.10287046 0.42757034 -0.08618832
1.11297178 0.42164993 -0.08052731
1.12646818 0.41939926 -0.08061887
1.13089323 0.40736008 -0.08299923
1.14640379 0.41214371 -0.07977963
1.13843107 0.42334366 -0.07652951
1.15298796 0.42031479 -0.07512570
1.13772154 0.43171310 -0.06851865
1.15568113 0.42785263 -0.06888485
1.10496092 0.43629074 -0.07887936
1.16308928 0.42074203 -0.07007504
1.16746855 0.42942429 -0.06604672
1.17390776 0.43680191 -0.05985165
1.17679167 0.43033218 -0.04820919
1.18361235 0.45045853 -0.04833126
1.19076109 0.45642471 -0.04286862
1.19735289 0.44469070 -0.04012204
1.20701170 0.44198227 -0.04193783
1.20453215 0.45791245 -0.04091549
1.22181273 0.44532394 -0.02983761
1.19556761 0.46431351 -0.03732968
1.21561766 0.45531082 -0.03559017
1.22616148 0.45656967 -0.02719784
1.18645048 0.46786118 -0.03314877
1.19240904 0.47847366 -0.03803158
1.20199919 0.47326279 -0.03729916
1.20788145 0.46564865 -0.03029537
1.20978117 0.47887039 -0.03102780
1.17267942 0.50648880 -0.03922177
1.17505217 0.50981522 -0.02966976
1.22326994 0.35361099 0.00122928
1.23350096 0.35286331 0.00826358
1.23452330 0.45759964 -0.01937008
1.22110319 0.47697067 -0.02110958
1.15484190 0.55314255 0.00228214
1.15078306 0.55215073 0.01532840
1.16491270 0.53821945 0.00585270
1.23112822 0.46920395 -0.01758480
1.24418974 0.47232437 -0.00907040
1.22726011 0.48269272 -0.01486874
1.24778318 0.48175430 -0.00807858
1.24778318 0.47441483 0.00028324
1.24489927 0.50827408 0.00217533
1.25464201 0.51411057 0.00826358
1.25390196 0.52089310 0.01638126
1.28393126 0.51131058 0.02250004
1.26301146 0.53163528 0.02410221
1.27327299 0.53226089 0.02250004
1.26648283 0.54505539 0.03106022
1.27793455 0.52965927 0.03153324
1.27926970 0.54027176 0.02822208
1.27437925 0.54911423 0.03600406
1.28440428 0.54805374 0.03437137
1.28144407 0.55764389 0.03785038
1.29481840 0.54757309 0.03543949
1.29536772 0.55677414 0.04250431
1.27257109 0.52196121 0.02111149
1.33689451 0.55913162 0.06043338
1.30350065 0.56241226 0.04589176
1.31148100 0.56881332 0.05143070
1.31943846 0.57484055 0.06234073
1.32986021 0.58297348 0.06377506
1.34198332 0.58802414 0.07250309
1.02437925 0.60712051 -0.03520871
1.01661253 0.61635971 -0.03333187
1.01097441 0.62989426 -0.03346920
0.88843101 0.65790939 -0.00694943
0.89968437 0.66738510 -0.00781918
0.93915123 0.69864273 -0.01949215
0.95389885 0.69828415 -0.00937558
0.96644920 0.70640945 0.00051212
0.99679893 0.65913010 -0.02130795
0.99489921 0.67763901 -0.01554013
0.97860283 0.71442032 -0.00726986
0.96873802 0.69513321 -0.00517941
0.98220390 0.69556046 -0.00556088
0.98121208 0.70539474 -0.00337887
0.97860283 0.69307327 0.00849247
0.97043175 0.71545029 0.00214481
0.95804161 0.73008347 0.00797367
0.96550316 0.73703384 0.00588321
0.95990318 0.75424576 0.01255130
0.95063347 0.77816391 0.01677799
0.94877189 0.79165268 0.01986026
0.94466728 0.80124283 0.02092838
0.93026298 0.85087967 0.02715397
0.93921989 0.84791946 0.03170108
0.98890251 0.71714401 -0.00235653
0.98034233 0.72705460 0.00425052
0.97166008 0.73778152 0.01560306
1.34469938 0.59717941 0.07621097
1.35306120 0.60644913 0.08367252
1.18210936 0.36024094 0.34104252
1.18957090 0.36593246 0.34487247
1.20414305 0.36577225 0.33847904
1.18893766 0.37642288 0.34716129
1.18776274 0.38952255 0.34825993
1.18802977 0.39978409 0.35102177
1.19919920 0.37733078 0.34238529
1.19909239 0.39572525 0.35414982
1.19616270 0.40771866 0.35407352
1.19260740 0.41913223 0.35476017
1.19632292 0.44559860 0.36357975
1.23902464 0.82685471 0.23188114
1.23096800 0.81875992 0.24672794
0.84009117 0.90341568 0.02033329
0.88556236 0.89492416 0.01731205
0.90098137 0.89606857 0.01894474
0.93333763 0.86757278 0.02857303
0.93030113 0.87732315 0.03054142
0.93828148 0.87823105 0.03682804
0.91199058 0.88978958 0.02274418
0.91614097 0.89886856 0.02430057
0.93181175 0.89554977 0.02352237
0.92386955 0.88659286 0.02782535
0.91630119 0.91350937 0.02671146
0.92585319 0.90570450 0.02838993
0.92557091 0.91942978 0.02706241
0.92190117 0.93036270 0.02964115
0.92885154 0.93809128 0.02700138
0.92486137 0.94752884 0.02726078
0.92340416 0.96576309 0.02187442
1.28705168 0.86612320 0.23122501
1.22126341 0.97811508 0.30457401
1.22323179 0.96939468 0.31144047
1.28653288 0.87720108 0.23838137
1.27880430 0.87578201 0.24482059
1.25677824 0.90597153 0.25951481
1.27907133 0.88833237 0.24964237
1.26538420 0.89744949 0.25217533
1.27588224 0.89765549 0.25257206
1.26845884 0.90345383 0.26554203
1.25925779 0.91343307 0.26914310
1.27058744 0.90352249 0.27600956
1.25493193 0.92653275 0.27996159
1.25094175 0.93722916 0.27967167
1.25361967 0.93155289 0.29065800
1.24730253 0.94310379 0.28884220
1.24269438 0.94752884 0.29888248
1.25921965 0.92290115 0.28986454
1.23807096 0.95491409 0.29195499
1.22867918 0.96817398 0.29802799
1.24927855 0.93561172 0.30600834
1.23243284 0.95727158 0.29998112
1.20910215 0.98971176 0.31163883
1.35405302 0.75123978 -0.42772579
1.36201811 0.75135422 -0.41528988
1.36040068 0.75802994 -0.42330074
1.36901426 0.76367569 -0.41110897
1.36049223 0.44433975 -0.31549740
1.35492277 0.43712234 -0.30998898
1.47957945 0.44355392 -0.30483150
1.47631407 0.45499039 -0.29881954
1.46786070 0.46190262 -0.29544735
1.49489164 0.39947128 -0.31549740
1.48996305 0.41411209 -0.31806087
1.48716307 0.42354202 -0.31526852
1.49560118 0.41356277 -0.30515194
1.48498869 0.43024826 -0.30803585
1.43779325 0.47140884 -0.30223751
1.46339750 0.47812271 -0.30072689
1.45582151 0.48688126 -0.29727840
1.43357420 0.52852249 -0.29489803
1.38451719 0.58375931 -0.30322933
1.41601133 0.56830215 -0.29765987
1.39849424 0.58554459 -0.30072689
1.41104460 0.57843399 -0.29852962
1.43230772 0.54362869 -0.29895687
1.43996000 0.53438950 -0.30026913
1.42276335 0.55266190 -0.29167843
1.44127226 0.51960373 -0.29833126
1.42611265 0.56296158 -0.29820919
1.41944456 0.58845901 -0.29978085
1.38511229 0.72018051 -0.36131954
1.39374876 0.69993973 -0.34735775
1.38977385 0.71016312 -0.35433102
1.40552092 0.63817978 -0.31645870
1.40011168 0.64918900 -0.31648922
1.40317869 0.65499496 -0.32572079
1.41608763 0.60641098 -0.30121517
1.41485929 0.61474228 -0.31012630
1.41111326 0.62903214 -0.31056881
1.40188169 0.66825485 -0.33798885
1.39406919 0.67354202 -0.33072567
1.38997221 0.68715286 -0.33180904
1.38392210 0.70499039 -0.34358883
1.38084745 0.73826218 -0.40772152
1.36880827 0.75249863 -0.40788937
1.38479185 0.75325394 -0.39343929
1.38578367 0.74054337 -0.38243771
1.38048887 0.74882889 -0.38478756
1.38826323 0.74505234 -0.40129757
1.39734221 0.74398422 -0.38893795
1.37446165 0.76912308 -0.40463924
1.37540007 0.75653458 -0.39729977
1.37623167 0.77729416 -0.39623165
1.38483000 0.77578354 -0.38230038
1.38530302 0.76635361 -0.39887142
1.38752317 0.77562332 -0.39340878
1.38466978 0.72590256 -0.37197018
1.38380766 0.73790359 -0.37085629
1.40066099 0.77491379 -0.37827206
1.41099119 0.75696182 -0.37058163
1.41104460 0.77086258 -0.36588192
1.40088987 0.78080368 -0.37016964
1.41321135 0.78131485 -0.36316586
1.41877317 0.75593185 -0.36257076
1.41505766 0.77295303 -0.35282040
1.41530180 0.78167343 -0.34726620
1.42698240 0.78541183 -0.34773922
1.38436460 0.76027298 -0.38545895
1.40539122 0.78833389 -0.35571957
1.41214323 0.79236221 -0.34781551
1.42847776 0.77346420 -0.33783627
1.43448210 0.78257370 -0.34004879
1.44134092 0.78438950 -0.32710934
1.42331266 0.79393387 -0.34393978
1.43262053 0.79156876 -0.32974911
1.44091368 0.79816055 -0.32997799
1.44825315 0.80170822 -0.32256222
1.44820738 0.78924179 -0.31564999
1.44942808 0.81055069 -0.31320858
1.45444059 0.79461288 -0.30654049
1.46766233 0.80005264 -0.29994869
1.46249723 0.80929184 -0.30515194
1.46892881 0.81280136 -0.29753780
1.46123075 0.81836319 -0.29315853
1.47523832 0.80964279 -0.29012203
1.46651793 0.82468033 -0.28723812
1.47642088 0.81962967 -0.28624630
1.47915220 0.81859970 -0.27519894
1.48041105 0.82452011 -0.26605892
1.52781248 0.78321457 -0.22161007
1.48913145 0.81173325 -0.26892757
1.50625944 0.80131912 -0.24980831
1.49817228 0.81682205 -0.26489925
1.49556303 0.81367111 -0.25311947
1.49087095 0.82567215 -0.25874996
1.49711180 0.83313370 -0.25228024
1.50680876 0.82441330 -0.26013851
1.51324034 0.83131027 -0.25096798
1.51301146 0.80112076 -0.24240780
1.50680876 0.81067276 -0.24391842
1.51340055 0.79970169 -0.23081112
1.50515318 0.80443192 -0.23515989
1.52047300 0.79122543 -0.22200680
1.50921965 0.82045364 -0.24632931
1.51790190 0.82550430 -0.24228573
1.53306150 0.83446884 -0.24214840
1.56493711 0.85064316 -0.22212887
1.53132200 0.78470230 -0.20918941
1.54169798 0.77665329 -0.20436764
1.61068296 0.73593521 -0.17636776
1.59627104 0.73868942 -0.17031002
1.67760038 0.70948410 -0.17703915
1.68731260 0.69709396 -0.17446041
1.61853361 0.72925949 -0.16854000
1.62787962 0.72448349 -0.17517759
1.62993193 0.72563553 -0.16226864
1.57567167 0.85569382 -0.21549131
1.58320951 0.86016464 -0.20835018
1.55594206 0.85795212 -0.22122860
1.35705137 0.57705307 0.07636356
1.36719084 0.58652115 0.08165836
1.37414122 0.58723068 0.09061527
1.36329222 0.60721207 0.08654117
1.35737181 0.62429428 0.09763431
1.37252378 0.61415482 0.09168338
1.38598204 0.62449265 0.09771061
1.40014219 0.61355209 0.10031985
1.37571287 0.62247086 0.09716129
1.36908293 0.63312912 0.10363102
1.38708067 0.59588242 0.09850406
1.43850279 0.58076096 0.11441898
1.40574980 0.61055374 0.10859012
1.40989256 0.61671066 0.11602115
1.40278959 0.62465286 0.11396122
1.38328886 0.63087845 0.10671329
1.37430143 0.63991165 0.10964298
1.37938261 0.65767288 0.10762881
1.39608335 0.62970352 0.10671329
1.39068174 0.64422226 0.11361026
1.40539122 0.64319229 0.12110233
1.39849424 0.63510513 0.11718082
1.38605833 0.65329361 0.11527347
1.39782286 0.65046310 0.11832523
1.42193174 0.60392380 0.11370182
1.43049192 0.59809494 0.11917972
1.38376951 0.66932297 0.11287784
1.38266325 0.67630386 0.12384891
1.38476133 0.68830490 0.12320804
1.37915373 0.69880295 0.12722109
1.36860991 0.71292496 0.13768862
1.35646391 0.72996902 0.14452457
1.37157011 0.72298050 0.14037418
1.36699247 0.73104477 0.14589785
1.01491117 -2.29620743 0.85935307
1.02781248 -2.29099655 0.85047245
1.02154112 -2.27277756 0.86010075
1.05772734 -2.25394821 0.86092472
1.06833982 -2.24798965 0.85424137
1.07419157 -2.25658798 0.85978031
0.79207176 -2.16381454 0.83036137
0.78808159 -2.15631485 0.82276249
0.77797264 -2.15269089 0.81968021
0.82080406 -1.99124527 0.80098820
0.83693260 -1.98868179 0.80381107
0.82593101 -1.98485947 0.80725956
0.76681083 -2.15363693 0.81919193
1.07770109 -2.19839096 0.83976078
0.85164970 -2.06539536 0.79702091
0.85769218 -2.07352829 0.79363346
0.87829155 -2.00979996 0.78073978
0.88082451 -1.99925613 0.78228092
0.88489097 -1.98863602 0.78135014
0.89025444 -1.99301529 0.77240849
0.85898918 -2.03591537 0.78981876
1.09122801 -2.05707169 0.83956242
1.11416197 -2.16444778 0.86393070
1.11917448 -2.15848923 0.87174320
1.14103270 -2.13000107 0.87130070
1.13180113 -2.14218521 0.87174320
1.14931822 -2.12647629 0.87883854
1.10161161 -2.02020645 0.85035038
1.11637449 -2.01102066 0.85144901
1.12031126 -1.99677658 0.84853458
0.90095085 -1.96149063 0.76917362
0.89387840 -1.97716141 0.77813053
0.88985008 -1.96686172 0.78057194
0.89960045 -1.96330643 0.77979374
0.88421196 -1.97766495 0.78495121
0.89944023 -1.96851730 0.78855228
0.89976066 -1.95114517 0.78904057
0.90472740 -1.97830582 0.77517033
0.90738243 -1.95347977 0.77311039
0.90911430 -1.94022751 0.77323246
0.91302055 -1.92983627 0.77484989
0.91717094 -1.92143631 0.78009892
0.92596000 -1.91724777 0.77706242
0.91144127 -1.90356064 0.77758121
0.92083305 -1.90730667 0.77954960
0.92023796 -1.89665604 0.78121281
0.93227714 -1.90076065 0.77732182
0.94935936 -1.91614914 0.76830387
0.94352287 -1.90703964 0.77449894
0.96286339 -1.90576553 0.77628422
0.95118278 -1.90060043 0.77349186
0.94104332 -1.89562607 0.78073978
0.94987816 -1.88959122 0.78121281
0.95012230 -1.87376785 0.78266239
0.96010154 -1.87791061 0.78046513
0.93358177 -1.88895798 0.78530216
0.94124168 -1.88043594 0.78507328
0.94446892 -1.86456680 0.79221439
0.95473045 -1.86227798 0.78727055
0.95074028 -1.85639572 0.79670048
0.97027916 -1.89234543 0.77599430
0.97458214 -1.85683823 0.78151798
0.96476310 -1.84914780 0.78867435
0.95379204 -1.84444809 0.79454899
0.96097130 -1.83670425 0.79514408
0.92895836 -1.82498550 0.81850529
0.92071098 -1.82498550 0.82663822
0.91215080 -1.82452011 0.83199406
0.97343773 -1.84547806 0.79226017
0.98459953 -1.84384537 0.78495121
0.99321312 -1.84286880 0.79447269
0.97133964 -1.83517838 0.79644108
0.98369163 -1.83544540 0.79833317
0.97383446 -1.82510757 0.79802799
0.98678154 -1.82530594 0.80654240
0.99428123 -1.83939743 0.81305790
0.99940056 -1.84953690 0.80303288
0.98469108 -1.81615067 0.79824162
0.99126762 -1.81137466 0.80497074
0.98421043 -1.80617142 0.81218815
0.99660057 -1.79870987 0.80712223
1.00291014 -1.80991745 0.80593204
1.00950193 -1.79745102 0.80793095
0.99927849 -1.79066086 0.81324100
1.00907469 -1.78600693 0.81214237
1.01941252 -1.77992630 0.81356144
0.98117393 -1.84299088 0.82631779
0.99447197 -1.83375168 0.82701969
1.00847960 -1.77258682 0.81861210
1.02402830 -1.77096939 0.81519413
1.02540922 -1.76035690 0.81900883
1.01494932 -1.75703812 0.82047367
1.00571775 -1.74053574 0.83097172
1.02723265 -1.74921799 0.82154179
1.03061247 -1.74507523 0.83045292
1.02099180 -1.73007584 0.82840824
1.03425169 -1.76733780 0.81786442
1.04297209 -1.75920486 0.81604862
1.05150175 -1.75201797 0.81884098
1.04072142 -1.74838638 0.82462406
1.05015135 -1.73966599 0.82549381
1.12474394 -1.96614456 0.85117435
1.16231108 -1.93252945 0.86478519
1.34698820 -2.13087082 0.97515202
1.15816069 -2.11247635 0.88393497
1.15748930 -2.09981155 0.88298893
1.16436338 -2.10438919 0.89080143
1.18822813 -2.08871841 0.89910221
1.19742155 -2.08054733 0.90361881
1.21210051 -2.07092667 0.90934086
1.20341825 -2.06235886 0.91175175
1.21345091 -2.05781937 0.91423893
1.32714415 -2.12360764 0.97132206
1.22343016 -2.05131149 0.91886234
1.21511412 -2.04851151 0.92385197
1.23275328 -2.05738449 0.91787052
1.22697783 -2.04286575 0.92745304
1.23932981 -2.04688644 0.92307377
1.23636961 -2.03973770 0.93309879
1.24904203 -2.03851700 0.93000126
1.25239134 -2.02624893 0.94303226
1.25184202 -2.01630783 0.94158268
1.33111906 -2.10954666 0.97280216
1.34489775 -2.10525894 0.96991825
1.33851194 -2.09519577 0.97103214
1.27366209 -2.02233505 0.95259953
1.28480101 -2.01697922 0.96305180
1.25946379 -2.00613022 0.95053959
1.26095915 -1.99306107 0.94513798
1.27063322 -2.01630783 0.96128178
1.27212858 -2.00916672 0.96897221
1.30118132 -2.01227951 0.97596073
1.30165434 -1.98512650 0.97547245
1.31167173 -2.01536179 0.97863102
1.26288939 -2.02344894 0.94904423
1.34829283 -2.00505447 1.01029301
1.17512846 -1.92246628 0.88079166
1.21637297 -1.92139816 0.93038273
1.18078184 -1.91484451 0.89130497
1.18602324 -1.89220047 0.89864445
1.19494200 -1.89223862 0.90847111
1.18802977 -1.86326981 0.91033268
1.19600248 -1.88161850 0.90818119
1.21657133 -1.89381790 0.91384220
1.21818113 -1.90241623 0.92481327
1.21747160 -1.91026688 0.93444157
1.21878386 -1.89105606 0.92762089
1.22071409 -1.88986588 0.94075871
1.20791960 -1.87656784 0.91329288
1.21367979 -1.88185501 0.92284489
1.19916105 -1.87128067 0.91242313
1.21380186 -1.86646652 0.92588139
1.19923735 -1.85593033 0.91726017
1.23223448 -1.96709824 0.92611027
1.24714994 -1.96997452 0.94013309
1.25539732 -1.95963669 0.94146061
1.26510191 -1.98133469 0.94394779
1.23046446 -1.88268661 0.94532108
1.23784208 -1.87652969 0.95346928
1.25508451 -1.88264847 0.98787785
1.26060057 -1.87470627 0.99517155
1.18271208 -1.85442734 0.90721989
1.18133116 -1.84309769 0.90602970
1.17757750 -1.83115005 0.90641117
1.18802977 -1.82562637 0.90989017
1.17473173 -1.81886673 0.90287113
1.18230772 -1.81121445 0.90705204
1.17260313 -1.80395889 0.90058231
1.17537260 -1.79459763 0.90503788
1.18246794 -1.80126572 0.90926456
1.23794889 -1.88110733 0.96325016
1.19076109 -1.83559799 0.91458988
1.20389891 -1.84337997 0.91996098
1.18425322 -1.81998062 0.91735172
1.12446165 -1.79002762 0.90461063
1.15156889 -1.77017593 0.89849186
1.15871000 -1.75939560 0.90212345
1.14825010 -1.76137924 0.90818119
1.15358305 -1.73411179 0.89315128
1.15757322 -1.74615097 0.90038395
1.12020445 -1.77203751 0.92516422
1.16624784 -1.77968979 0.90168095
1.17705870 -1.77699661 0.90515995
1.16874266 -1.76425552 0.90070438
1.16711760 -1.75221634 0.89875126
1.16629362 -1.73927689 0.89901066
1.27742338 -1.84551620 1.02385807
1.57709074 -2.15443039 0.42504215
1.58246183 -2.14902115 0.41664982
1.59201384 -2.14641953 0.41314030
1.59038877 -2.15154648 0.42321110
1.60081053 -2.14636612 0.42311954
1.58179045 -2.13193130 0.40134525
1.59469175 -2.13383102 0.40110111
1.60313749 -2.13725662 0.40927982
1.55433226 -2.19527054 0.46743107
1.57441282 -2.16373825 0.43662357
1.57157469 -2.17442703 0.44731998
1.57213163 -2.16100693 0.44672489
1.58861876 -2.15723038 0.43164921
1.59643126 -2.11220169 0.38626957
1.60554838 -2.13390732 0.41843510
1.61687040 -2.13422012 0.43161869
1.73475218 -1.79511642 0.47190189
1.66829252 -1.75099564 0.46941471
1.70585966 -1.76283646 0.45736027
1.71782255 -1.76607895 0.45232487
1.72014189 -1.77510452 0.45864201
1.73067808 -1.76469803 0.45911503
1.69086027 -1.75979996 0.46756840
1.70186949 -1.76488876 0.47222233
1.72104979 -1.76137924 0.46720219
1.72330046 -1.77049637 0.47414494
1.70350218 -1.79748917 0.48911381
1.73849821 -1.76907730 0.47107792
1.71348143 -1.77644730 0.47956181
1.71293211 -1.78761673 0.48523808
1.72918272 -1.78162766 0.48610783
1.68020964 -1.75487137 0.46798038
1.70543242 -1.75455093 0.46450138
1.74524260 -1.78442764 0.46955204
1.75368834 -1.76611710 0.46764469
1.86110258 -1.77795792 0.52114201
1.86903715 -1.77853775 0.52755070
1.96252012 -1.86989975 0.56641483
1.89709806 -1.82861710 0.55085087
1.90345335 -1.83959579 0.55140018
1.87736082 -1.79449081 0.53672123
1.89003325 -1.81693649 0.55146122
1.88415098 -1.80647659 0.54348087
1.91958952 -1.84045792 0.56684208
1.92981291 -1.84629440 0.56858158
1.90529966 -1.83161545 0.55745792
1.90600920 -1.83070755 0.56951237
1.47931242 -2.30982590 0.98156071
1.47082090 -2.31124496 0.98780155
1.46080351 -2.29218674 0.96453190
1.46628141 -2.29874039 0.97097111
1.89540434 -1.82127762 0.56069279
1.47385740 -2.30567551 0.97074223
1.44485044 -2.24712753 0.95105839
1.44591856 -2.25604630 0.95658207
1.43471098 -2.24499130 0.95429325
1.45463896 -2.24281693 0.94928837
1.45894194 -2.27043533 0.96695805
1.49879789 -2.34049606 1.00428104
1.50918150 -2.34531021 1.00235844
1.48720121 -2.33247757 0.99395084
1.40879393 -2.21159744 0.96653080
1.39970732 -2.20268631 0.97342777
1.40262938 -2.20209885 0.96175480
1.44549131 -2.23472977 0.94979191
1.42659330 -2.23572159 0.95780277
1.43870115 -2.23141861 0.95693302
1.43111753 -2.22241592 0.95760441
1.41925383 -2.21803665 0.95890141
1.41955900 -2.22936630 0.96868229
1.35382414 -2.11066055 0.96996403
1.41797972 -2.01164627 0.99639225
1.41704130 -1.99618149 1.00153446
1.42327452 -2.00284958 0.99533939
1.35377073 -1.99739456 1.01451969
1.37967253 -1.99416733 1.02047062
1.38289976 -1.98808670 1.03357792
1.39865446 -1.99519730 1.01838017
1.47358274 -1.99668503 1.04714298
1.57651091 -1.99416733 1.13381290
1.60364866 -2.00600815 1.13543034
1.59710264 -1.99464035 1.13201237
1.60579252 -1.98934555 1.13364506
1.41517973 -1.97273636 1.01545048
1.42599058 -1.97253799 1.01667118
1.42734098 -1.95300674 1.02987003
1.48151731 -1.95699692 1.07061100
1.49399137 -1.95777512 1.07109928
1.53550291 -1.97514725 1.09948063
1.53112364 -1.96670151 1.09220219
1.54220915 -1.96658707 1.09887028
1.55263090 -1.96330643 1.09864140
1.59106016 -2.00197983 1.13893986
1.59903288 -2.00955582 1.14394474
1.61293364 -1.99014664 1.14244938
0.82686943 -1.34421921 0.45639896
0.82213157 -1.33964157 0.44696903
0.34594291 -1.31853104 0.72994328
0.32740349 -1.31023788 0.73899174
0.34740013 -1.29446030 0.73416996
0.33774132 -1.30562973 0.73519230
0.32499260 -1.29658890 0.74012089
0.33867976 -1.29272079 0.73879337
0.33734459 -1.28288651 0.73487186
0.32696101 -1.28889847 0.74742985
0.35615867 -1.27606583 0.72757816
0.36619133 -1.27973557 0.72947025
0.36819786 -1.26383591 0.72315311
0.34534785 -1.23100662 0.72583866
0.33596367 -1.22756577 0.72753239
0.32869285 -1.22066116 0.72831059
0.34381431 -1.22066116 0.72852421
0.37569755 -1.21178818 0.71901798
0.39997429 -1.23077011 0.70876408
0.39905876 -1.21410751 0.71617985
0.46531245 -1.21371841 0.71428776
0.48146388 -1.21375656 0.71151066
0.48788783 -1.22922897 0.71415043
0.51342338 -1.24098587 0.71482182
0.50869316 -1.23041153 0.71627140
0.49566218 -1.22132492 0.71476078
0.52183098 -1.26232529 0.70884037
0.52929252 -1.27145004 0.71073246
0.53000206 -1.25487900 0.71485233
0.51886314 -1.25096512 0.71334171
0.52301353 -1.23949051 0.71798038
0.53895134 -1.27042770 0.72023869
0.52459282 -1.22832108 0.72615910
0.85950798 -1.28497696 0.40255070
0.86696190 -1.27854538 0.39724064
0.85985893 -1.26757431 0.40087223
1.05922270 -1.71764755 0.82891178
1.06672239 -1.71027756 0.83013248
1.07004118 -1.70111465 0.83290958
1.08255339 -1.69759750 0.83760929
1.08776426 -1.68844986 0.84159184
1.08855009 -1.66911697 0.84568119
1.09388304 -1.67901993 0.84786320
1.09466124 -1.66453934 0.85302067
1.09462309 -1.65356827 0.85445499
1.07146025 -1.60017776 0.86097050
1.09041166 -1.60175705 0.86861515
1.02186155 -1.48406601 0.81391239
1.04100370 -1.49615097 0.80867863
1.03686094 -1.47993088 0.81191349
1.05157042 -1.58600998 0.86448002
1.04774046 -1.57638168 0.87394047
1.06653166 -1.59010696 0.86106205
1.08558989 -1.59271622 0.86005497
1.07979155 -1.57780075 0.85378361
1.08062315 -1.56800461 0.86187077
1.09230375 -1.59085464 0.86840153
1.08925962 -1.57507706 0.86707401
1.06203032 -1.55995560 0.87661076
1.07335234 -1.54649734 0.86467838
1.07078886 -1.55541611 0.87059879
1.07746458 -1.53687668 0.86631107
1.06759214 -1.54449081 0.87592411
1.06665373 -1.53470993 0.87783146
1.01147795 -1.47405624 0.82047367
1.08574247 -1.54492569 0.87209415
1.02939177 -1.47298813 0.81762028
1.03855467 -1.47018814 0.82415104
1.05733061 -1.47179794 0.83855534
1.06112242 -1.51189804 0.86736393
1.06708097 -1.52641678 0.87107182
1.08184385 -1.52262497 0.86771488
1.07296324 -1.51717758 0.86982059
1.08539152 -1.51031876 0.87473392
1.07078886 -1.50163651 0.87154484
1.05669737 -1.47140884 0.85122013
1.05749083 -1.48339462 0.85993290
1.08072996 -1.55826950 0.86676884
1.05887175 -1.49761581 0.86718082
1.08964872 -1.56441879 0.87876225
1.05492735 -1.47167587 0.86538029
1.09108305 -1.55387497 0.87587833
1.06444120 -1.47775650 0.85350895
1.13566160 -1.70380783 0.87699223
1.12793303 -1.67132950 0.87796879
1.11831236 -1.66714096 0.87505436
1.13109159 -1.68363571 0.87555790
1.10448790 -1.65904617 0.86103153
1.10039091 -1.64622879 0.85926151
1.11747313 -1.64851761 0.86301517
1.11077452 -1.65336990 0.86881351
1.12488890 -1.65628433 0.86451054
1.10643339 -1.63888931 0.86402225
1.12410307 -1.65849686 0.87658024
1.12359190 -1.64910507 0.87223148
1.11357450 -1.63293076 0.87040043
1.11886168 -1.64018631 0.87551212
1.10287046 -1.62242508 0.87067509
1.12340117 -1.63181686 0.87915897
1.09656096 -1.61401749 0.86901188
1.11522245 -1.62054062 0.87622929
1.10572386 -1.61311722 0.87452030
1.10138273 -1.59882736 0.87168217
1.10228300 -1.58769608 0.87500858
1.02209044 -1.46474075 0.81818485
1.01594114 -1.45964432 0.82444096
1.02875853 -1.45944595 0.82549381
1.03512144 -1.45435715 0.83567142
1.04403257 -1.46137619 0.84040165
1.04075956 -1.44713974 0.84166813
1.04481840 -1.40534592 0.84667301
1.04703093 -1.45774460 0.85172367
1.04877043 -1.45384598 0.86202335
1.04214048 -1.44626999 0.85642338
1.04648161 -1.43710709 0.85579777
1.05639219 -1.46047592 0.86640263
1.04297209 -1.44164658 0.86576176
1.05456877 -1.44153976 0.87069035
1.05970335 -1.45111465 0.87828922
1.03799772 -1.41292953 0.85054874
1.03708982 -1.42207718 0.85662174
1.03290129 -1.40853500 0.85910892
1.03061247 -1.39646530 0.85697269
1.02202177 -1.38554001 0.85093021
1.03019285 -1.38166428 0.85598087
1.01893187 -1.36533737 0.85346317
1.01191282 -1.35265732 0.85445499
1.02161741 -1.35155869 0.85152531
1.01423979 -1.34081650 0.85160160
0.96644920 -1.21758652 0.85122013
0.95856041 -1.21146774 0.86245060
0.98961204 -1.27969742 0.83811283
0.99337333 -1.29011917 0.83913517
1.00004148 -1.29114151 0.84710026
1.00071287 -1.27981949 0.84639835
1.00484800 -1.32551956 0.84899235
1.01401091 -1.33009720 0.85070133
1.01459074 -1.31995010 0.85163212
0.99897331 -1.30779648 0.84766483
1.00994444 -1.30997086 0.84963322
0.99656242 -1.26509476 0.84565067
0.98883384 -1.25416946 0.84557438
0.98156303 -1.24090958 0.84667301
0.98117393 -1.26328659 0.85189152
0.97796959 -1.25053787 0.85421085
0.97378868 -1.23648453 0.85192204
0.99108452 -1.23928452 0.85057926
0.97516960 -1.22408676 0.84856510
0.33394188 -1.20735550 0.73021793
0.34823176 -1.20621872 0.72872257
0.35023826 -1.19540787 0.73093510
0.36211726 -1.20621872 0.72556400
0.37198204 -1.20029831 0.72406864
0.36365837 -1.18968582 0.73180485
0.37813899 -1.18936539 0.72911930
0.36998314 -1.17578506 0.73290348
0.38650841 -1.17860031 0.72675419
0.38035148 -1.16849136 0.73172855
0.44918391 -1.20389175 0.71411991
0.38737816 -1.18308640 0.73993778
0.43631312 -1.21082687 0.72048283
0.39831108 -1.17748642 0.73423100
0.40143153 -1.17069626 0.72675419
0.40313286 -1.14860916 0.72817326
0.39001793 -1.15965652 0.73645878
0.42740199 -1.15041733 0.71906376
0.42071864 -1.13357162 0.72521305
0.42624995 -1.12326431 0.72718143
0.43943352 -1.12781143 0.72596073
0.45060295 -1.12582779 0.73764896
0.42913386 -1.11118698 0.72782230
0.44005913 -1.10893631 0.73354435
0.43477196 -1.10037613 0.74392033
0.44700187 -1.10913467 0.74514103
0.45955223 -1.20084763 0.71415043
0.48162407 -1.20180130 0.71553898
0.50170463 -1.16939926 0.71801090
0.46101710 -1.19363022 0.72248173
0.46366450 -1.18359756 0.72152042
0.48548457 -1.18365097 0.72004032
0.51144737 -1.14816666 0.72152042
0.50384086 -1.14717484 0.72892094
0.52695793 -1.17416763 0.69289494
0.51855034 -1.16238022 0.69352055
0.49782893 -1.13924789 0.73159122
0.49105400 -1.16746902 0.71987247
0.51050133 -1.13857651 0.72486210
0.50915855 -1.13948441 0.73503971
0.50931877 -1.13763809 0.74987125
0.45608085 -1.10684586 0.75031376
0.46586937 -1.11423111 0.75006962
0.52092308 -1.14488602 0.72347355
0.51610130 -1.14548874 0.71021366
0.52730888 -1.14070511 0.73066044
0.52629417 -1.13139725 0.73449039
0.51919121 -1.13336563 0.74556828
0.53547996 -1.13892746 0.73622990
0.54689354 -1.14007950 0.73787785
0.53682274 -1.12338638 0.73902225
0.54554313 -1.11825943 0.74083805
0.54957145 -1.12939072 0.74015141
0.56148857 -1.12086105 0.74308109
0.57039970 -1.11536789 0.74633121
0.55433983 -1.10692978 0.74897099
0.57912773 -1.11189651 0.75034428
0.56729454 -1.10464096 0.74935246
0.38614982 -1.16447067 0.75260258
0.38457054 -1.16982651 0.76541996
0.39767784 -1.17950821 0.75054264
0.38833186 -1.18482590 0.77880192
0.39664790 -1.16463089 0.75866032
0.39026207 -1.16939926 0.77845097
0.44388911 -1.10021591 0.75219059
0.43066737 -1.09303665 0.75559330
0.42139000 -1.08399582 0.75550175
0.44755885 -1.09232712 0.75785160
0.44401118 -1.08234787 0.76316166
0.48446223 -1.12547684 0.75701237
0.46402305 -1.10021591 0.75544071
0.46132988 -1.09276962 0.76229191
0.45640129 -1.08337784 0.76635075
0.55675071 -1.09537125 0.75705814
0.56988853 -1.09315872 0.75481510
0.57718986 -1.15349960 0.84095097
0.48896354 -1.13048935 0.86428165
0.56106132 -1.13116074 0.84565067
0.57699150 -1.14284134 0.83811283
0.54117149 -1.12168503 0.84761906
0.54468101 -1.11576462 0.85674381
0.57222313 -1.13889694 0.85418034
0.55324119 -1.12485123 0.85781193
0.34385249 -1.06963730 0.79856205
0.33055443 -1.07069778 0.79984379
0.32392451 -1.06036758 0.80378056
0.33134025 -1.05215836 0.80094242
0.33024165 -1.05116653 0.81400394
0.36844200 -1.07709885 0.79209232
0.35463279 -1.07259750 0.79766178
0.34468406 -1.05728531 0.80101871
0.35482356 -1.05965805 0.79763126
0.38023707 -1.07255936 0.79477787
0.36207908 -1.05228043 0.79757023
0.37783378 -1.05814743 0.79563236
0.43856376 -1.07252121 0.76601505
0.44906184 -1.06841660 0.77256107
0.38852257 -1.07828140 0.79496098
0.39664790 -1.07105637 0.79470158
0.40944237 -1.07307816 0.79064274
0.39886039 -1.06013107 0.79277897
0.38817161 -1.05270767 0.79541874
0.41839164 -1.05945969 0.79351139
0.42602107 -1.07231522 0.78855228
0.44239375 -1.07855606 0.78547001
0.43658778 -1.07137680 0.79064274
0.45103019 -1.06798172 0.78913212
0.43004176 -1.05949783 0.79044437
0.44310325 -1.06119919 0.79032230
0.44498771 -1.04942703 0.80126286
0.45048088 -1.03700638 0.80642033
0.45040458 -1.04694748 0.81507206
0.44227168 -1.03494644 0.81925297
0.43638939 -1.02306747 0.83081913
0.44617793 -1.03731918 0.83979130
0.43615288 -1.02223587 0.84146976
0.43110222 -1.01975632 0.85070133
0.42112297 -1.02035141 0.86100101
0.43670222 -1.01186752 0.84580326
0.43107170 -0.99860764 0.84912968
0.43403190 -0.98772049 0.85276127
0.43773219 -0.97587967 0.85437870
0.46228358 -1.07847977 0.77887821
0.46570918 -1.06805801 0.78783512
0.47490260 -1.07314682 0.78452396
0.45588252 -1.05905533 0.78302860
0.46473259 -1.05689621 0.78965092
0.48063225 -1.05089951 0.79049015
0.47503230 -1.06451035 0.79151249
0.45540947 -1.05492020 0.79450321
0.49119896 -1.05839157 0.79190922
0.50532860 -1.06075668 0.79044437
0.45391411 -1.04370499 0.79715824
0.50603813 -1.05084610 0.79293156
0.46930259 -1.04253006 0.79569340
0.49910304 -1.04127121 0.79064274
0.48437828 -1.04024124 0.79367924
0.51113456 -1.04074478 0.79110050
0.57963890 -1.07977676 0.75568485
0.53918785 -1.05531693 0.78585148
0.51638359 -1.05475998 0.78887272
0.55127281 -1.05247116 0.78743839
0.57162803 -1.05228043 0.78910160
0.52649254 -1.04903793 0.78810978
0.52379936 -1.03774643 0.78855228
0.53946251 -1.04173660 0.78594303
0.54214805 -1.03277969 0.79296207
0.55398887 -1.03818893 0.78736210
0.56949943 -1.03751755 0.78991032
0.55652183 -1.03162766 0.79522038
0.57096428 -1.02275467 0.80216312
0.54732078 -0.95850754 0.87513065
0.57332176 -0.95634079 0.86202335
0.58793205 -1.10815811 0.74738407
0.58974022 -1.09852982 0.75272465
0.64040703 -1.16229630 0.83030033
0.64316887 -1.15270615 0.83129215
0.63154167 -1.13999557 0.83495426
0.62652153 -1.12788773 0.84130192
0.63868278 -1.12653732 0.84616947
0.64226097 -1.12089920 0.85674381
0.63737053 -1.11285019 0.86383915
0.65166038 -1.14484787 0.84146976
0.67427391 -1.14580154 0.84394169
0.64471000 -1.13293839 0.84027958
0.69227165 -1.13100815 0.84699345
0.67305321 -1.13088608 0.85282230
0.68294853 -1.13857651 0.85141850
0.70334953 -1.13091660 0.85128117
0.70836204 -1.13928604 0.85524845
0.68204063 -1.12985611 0.85733891
0.69085258 -1.12203598 0.85582829
0.70576042 -1.12958145 0.86132145
0.69172233 -1.11533737 0.86592960
0.69787163 -1.12137985 0.87847233
